# .PCD v0.7 - Point Cloud Data file format
VERSION 0.7
FIELDS x y z rgb
SIZE 4 4 4 4
TYPE F F F U
COUNT 1 1 1 1
WIDTH 1148
HEIGHT 1
VIEWPOINT 0 0 0 1 0 0 0
POINTS 1148
DATA ascii
7.6659646 6.0888085 0.028828504 4278190335
7.6373215 6.0887551 0.033931818 4278190335
7.623075 6.0887303 0.036528911 4278190335
7.6088796 6.088707 0.039155703 4278190335
7.5947342 6.0886846 0.041811693 4278190335
7.5806389 6.0886617 0.044496465 4278190335
7.5665941 6.0886407 0.047209512 4278190335
7.6008792 6.0926642 0.86287612 4278190335
7.5900979 6.0926785 0.87148643 4278190335
7.5793676 6.0926914 0.88009983 4278190335
7.5686884 6.0927062 0.88871664 4278190335
7.5580592 6.0927219 0.89733577 4278190335
7.6117129 6.0926533 0.8542704 4278190335
7.7002168 6.0925965 0.78563362 4278190335
7.7572036 6.0925951 0.74299979 4278190335
7.7457023 6.0925932 0.75150657 4278190335
7.7342544 6.0925937 0.76002401 4278190335
7.722856 6.0925932 0.76855093 4278190335
7.7115107 6.0925946 0.77708787 4278190335
7.6889734 6.0925999 0.79418814 4278190335
7.6777825 6.0926037 0.80275071 4278190335
7.6666431 6.0926104 0.81132108 4278190335
7.6555543 6.092617 0.81989861 4278190335
7.6445169 6.0926242 0.82848275 4278190335
7.633532 6.0926332 0.83707309 4278190335
7.6225958 6.0926428 0.84566915 4278190335
7.73489 6.095942 1.3664746 4278190335
7.7468276 6.0959315 1.3595241 4278190335
7.7587891 6.0959201 1.3525211 4278190335
7.5598502 6.0905418 0.14461778 4278190335
7.5741401 6.09059 0.1455978 4278190335
7.5884762 6.0906391 0.14654404 4278190335
7.602859 6.0906887 0.14745599 4278190335
7.7492566 6.0912399 0.15459129 4278190335
7.7344093 6.0911818 0.15404704 4278190335
7.7196074 6.0911236 0.15346396 4278190335
7.7048512 6.0910649 0.15284246 4278190335
7.6901412 6.0910087 0.15218307 4278190335
7.6754789 6.0909543 0.15148622 4278190335
7.660861 6.0908985 0.15075235 4278190335
7.6462917 6.0908461 0.14998195 4278190335
7.6317677 6.0907927 0.14917542 4278190335
7.6172905 6.0907407 0.14833333 4278190335
7.7454209 6.0906544 0.32020947 4278190335
7.7306528 6.0906105 0.32118049 4278190335
7.7159247 6.0905671 0.32210872 4278190335
7.7012372 6.0905237 0.32299474 4278190335
7.6865921 6.0904827 0.32383886 4278190335
7.671988 6.0904412 0.3246415 4278190335
7.6574264 6.0904012 0.32540327 4278190335
7.6429057 6.0903606 0.3261244 4278190335
7.628428 6.0903225 0.32680553 4278190335
7.6139927 6.0902853 0.32744706 4278190335
7.5995994 6.0902472 0.3280493 4278190335
7.5852485 6.0902104 0.32861283 4278190335
7.5709424 6.0901756 0.3291381 4278190335
7.6924944 6.092339 0.78198195 4278190335
7.706244 6.0923605 0.77778894 4278190335
7.7200227 6.0923839 0.77354831 4278190335
7.73383 6.0924082 0.76925939 4278190335
7.7476659 6.092432 0.7649222 4278190335
7.6787753 6.0923176 0.78612733 4278190335
7.5701489 6.0921688 0.8176204 4278190335
7.5836124 6.0921841 0.81384325 4278190335
7.5971093 6.0922012 0.81002122 4278190335
7.6106396 6.0922189 0.80615377 4278190335
7.6242032 6.0922375 0.80224091 4278190335
7.6377988 6.0922556 0.79828215 4278190335
7.6514258 6.0922751 0.79427713 4278190335
7.6650848 6.0922956 0.79022568 4278190335
7.6192927 6.0904412 0.3004325 4278190335
7.7287531 6.0906959 0.26228592 4278190335
7.7148838 6.0906596 0.26697144 4278190335
7.7010679 6.0906253 0.27168152 4278190335
7.6873078 6.0905929 0.27641571 4278190335
7.6735983 6.0905604 0.28117353 4278190335
7.6599417 6.0905285 0.28595454 4278190335
7.6463399 6.0904984 0.29075834 4278190335
7.6327891 6.0904689 0.29558447 4278190335
7.7426739 6.0907302 0.2576254 4278190335
7.6058502 6.090416 0.30530196 4278190335
7.5924582 6.0903893 0.31019232 4278190335
7.5791197 6.0903645 0.31510311 4278190335
7.565834 6.0903401 0.32003397 4278190335
7.7566495 6.0907674 0.25299025 4278190335
7.7367854 6.0845699 0.40531477 4278190335
7.7514844 6.0846391 0.40324399 4278190335
7.7662191 6.084712 0.40112624 4278190335
7.7809868 6.0847831 0.39896095 4278190335
7.7957892 6.084856 0.39674783 4278190335
7.8106251 6.0849309 0.39448643 4278190335
7.8254943 6.0850043 0.39217636 4278190335
7.8403978 6.0850797 0.38981715 4278190335
7.7221208 6.0845017 0.40733904 4278190335
7.634871 6.0841012 0.41852978 4278190335
7.649323 6.0841656 0.41677627 4278190335
7.6638117 6.0842314 0.41497856 4278190335
7.6783357 6.0842972 0.41313642 4278190335
7.6928949 6.0843635 0.41124934 4278190335
7.70749 6.0844321 0.40931702 4278190335
7.7688079 6.0867224 0.84282655 4278190335
7.7823353 6.0867662 0.83736843 4278190335
7.7958822 6.086812 0.83185959 4278190335
7.8094482 6.0868568 0.82629925 4278190335
7.8230338 6.086904 0.82068759 4278190335
7.8366365 6.0869508 0.81502396 4278190335
7.7553005 6.0866785 0.84823388 4278190335
7.7418137 6.0866356 0.85359085 4278190335
7.7283478 6.0865922 0.85889739 4278190335
7.7149043 6.0865502 0.86415434 4278190335
7.7014823 6.0865088 0.86936176 4278190335
7.6880841 6.0864697 0.87451982 4278190335
7.6747079 6.0864296 0.87962896 4278190335
7.6613564 6.0863905 0.88468933 4278190335
7.6480284 6.0863514 0.88970143 4278190335
7.634726 6.0863137 0.89466518 4278190335
7.6214495 6.086277 0.89958102 4278190335
7.6964478 6.0844111 0.3460114 4278190335
7.8061509 6.0848904 0.30270919 4278190335
7.7922521 6.084826 0.30803308 4278190335
7.7784076 6.084765 0.31338325 4278190335
7.7646151 6.0847015 0.31875905 4278190335
7.7508764 6.084641 0.32416043 4278190335
7.7371902 6.0845828 0.32958674 4278190335
7.723557 6.0845246 0.33503759 4278190335
7.7099757 6.0844669 0.34051257 4278190335
7.682971 6.0843554 0.35153344 4278190335
7.6695476 6.0843029 0.35707843 4278190335
7.6561756 6.08425 0.36264583 4278190335
7.6428556 6.0841999 0.36823538 4278190335
7.6295872 6.0841503 0.37384647 4278190335
7.8201032 6.0849562 0.29741192 4278190335
7.8481684 6.0850902 0.28689873 4278190335
7.8341084 6.085022 0.29214162 4278190335
7.6442451 6.0864201 1.1300318 4278190335
7.6317043 6.0864143 1.136096 4278190335
7.6568108 6.0864291 1.1239188 4278190335
7.6693983 6.0864377 1.1177564 4278190335
7.6820083 6.0864472 1.1115445 4278190335
7.6946383 6.0864568 1.1052829 4278190335
7.7072897 6.0864673 1.0989715 4278190335
7.7199607 6.0864778 1.0926102 4278190335
7.7326508 6.0864906 1.0861992 4278190335
7.7453589 6.0865002 1.0797371 4278190335
7.8476186 6.0866199 1.0262138 4278190335
7.834785 6.0866041 1.0330842 4278190335
7.8219638 6.0865855 1.0399023 4278190335
7.8091578 6.0865712 1.0466692 4278190335
7.7963667 6.0865555 1.0533848 4278190335
7.7835903 6.0865417 1.0600492 4278190335
7.7708297 6.0865264 1.0666625 4278190335
7.7580862 6.0865149 1.0732255 4278190335
7.8486423 6.0840988 0.45505354 4278190335
7.835506 6.0840602 0.46195546 4278190335
7.8224225 6.084022 0.46887913 4278190335
7.8093944 6.0839853 0.47582394 4278190335
7.7964187 6.0839505 0.48278987 4278190335
7.6820178 6.0836878 0.54635829 4278190335
7.7834973 6.0839176 0.48977616 4278190335
7.7706285 6.0838847 0.49678257 4278190335
7.7578125 6.0838537 0.50380886 4278190335
7.745049 6.0838232 0.51085442 4278190335
7.7323389 6.0837936 0.51791883 4278190335
7.7196803 6.0837655 0.52500194 4278190335
7.7070742 6.0837379 0.53210318 4278190335
7.694521 6.0837126 0.53922206 4278190335
7.6695681 6.0836649 0.55351144 4278190335
7.6571693 6.0836411 0.56068099 4278190335
7.6448221 6.0836201 0.56786656 4278190335
7.6325269 6.0835996 0.57506794 4278190335
7.8425026 6.0838265 0.032452531 4278190335
7.7229223 6.0832038 0.019717183 4278190335
7.7377057 6.0832796 0.021442302 4278190335
7.7525349 6.0833545 0.023130262 4278190335
7.7674112 6.0834303 0.024780609 4278190335
7.7823343 6.083508 0.026392898 4278190335
7.7973056 6.0835867 0.027966684 4278190335
7.812324 6.0836654 0.02950152 4278190335
7.8273897 6.0837455 0.03099695 4278190335
7.7081881 6.0831299 0.017955355 4278190335
7.6935005 6.0830574 0.016157266 4278190335
7.793973 6.0871406 1.0745971 4278190335
7.8411875 6.0870509 1.0207157 4278190335
7.8316493 6.0870662 1.0314796 4278190335
7.8221588 6.0870833 1.0422503 4278190335
7.8127155 6.0871 1.0530268 4278190335
7.8033209 6.0871191 1.0638093 4278190335
7.7846727 6.0871606 1.0853896 4278190335
7.7754197 6.0871835 1.0961865 4278190335
7.7662129 6.0872059 1.1069874 4278190335
7.7570543 6.0872307 1.1177913 4278190335
7.747942 6.0872555 1.1285981 4278190335
7.7388773 6.0872827 1.1394073 4278190335
7.7298584 6.0873113 1.1502184 4278190335
7.7208862 6.0873384 1.1610304 4278190335
7.6422329 6.0876403 1.2582968 4278190335
7.7119608 6.0873675 1.1718431 4278190335
7.7030826 6.087399 1.1826558 4278190335
7.6942501 6.0874305 1.1934682 4278190335
7.6854649 6.0874629 1.2042793 4278190335
7.6767249 6.0874958 1.2150885 4278190335
7.6680322 6.0875301 1.2258958 4278190335
7.6593857 6.0875669 1.2367001 4278190335
7.6507859 6.0876021 1.2475005 4278190335
7.6337256 6.0876789 1.2690883 4278190335
7.6252651 6.0877185 1.2798742 4278190335
7.7588177 6.0867238 0.64981925 4278190335
7.7729592 6.086792 0.64567643 4278190335
7.7871246 6.0868602 0.64148337 4278190335
7.8013172 6.0869317 0.63723969 4278190335
7.8155336 6.0870018 0.63294524 4278190335
7.8297739 6.0870733 0.62859929 4278190335
7.8440385 6.0871458 0.62420171 4278190335
7.7447019 6.0866556 0.65391219 4278190335
7.6327534 6.0861416 0.68490416 4278190335
7.6466479 6.0862026 0.68119723 4278190335
7.6605721 6.0862656 0.67744327 4278190335
7.6745248 6.0863285 0.6736418 4278190335
7.6885047 6.0863919 0.66979283 4278190335
7.7025132 6.0864568 0.66589552 4278190335
7.7165499 6.0865226 0.66195005 4278190335
7.7306128 6.0865893 0.65795565 4278190335
7.6839042 6.0848055 0.17581412 4278190335
7.6697874 6.0847301 0.17973624 4278190335
7.6557226 6.0846562 0.18368666 4278190335
7.6417084 6.0845838 0.18766482 4278190335
7.6277447 6.0845127 0.19167039 4278190335
7.6980715 6.0848827 0.17192069 4278190335
7.8132572 6.085537 0.14185777 4278190335
7.8425708 6.085712 0.13465911 4278190335
7.827888 6.0856237 0.13824195 4278190335
7.7986784 6.0854506 0.14550616 4278190335
7.7841511 6.0853658 0.14918669 4278190335
7.7696757 6.0852828 0.15289891 4278190335
7.7552519 6.0852003 0.15664244 4278190335
7.74088 6.0851188 0.16041681 4278190335
7.7265587 6.0850382 0.1642216 4278190335
7.7122893 6.08496 0.16805637 4278190335
7.7030382 6.0865083 0.62461913 4278190335
7.8013301 6.0868773 0.56279314 4278190335
7.7888598 6.0868268 0.57046193 4278190335
7.776443 6.0867791 0.57814866 4278190335
7.7640781 6.08673 0.58585274 4278190335
7.7517653 6.0866833 0.59357369 4278190335
7.7395067 6.086638 0.60131127 4278190335
7.7272983 6.0865936 0.60906494 4278190335
7.7151423 6.0865502 0.61683422 4278190335
7.6909866 6.0864692 0.63241893 4278190335
7.6789861 6.0864286 0.64023298 4278190335
7.6670365 6.0863919 0.64806139 4278190335
7.655138 6.0863538 0.65590316 4278190335
7.6432915 6.086319 0.66375828 4278190335
7.631496 6.0862846 0.67162615 4278190335
7.8138537 6.0869298 0.5551421 4278190335
7.8390608 6.0870385 0.53989649 4278190335
7.8264298 6.0869827 0.54750985 4278190335
7.721632 6.089613 1.202132 4278190335
7.6236382 6.0894122 1.2550529 4278190335
7.6358085 6.0894365 1.2486135 4278190335
7.6480026 6.0894599 1.2421238 4278190335
7.6602192 6.0894837 1.2355841 4278190335
7.6724591 6.0895085 1.2289943 4278190335
7.684721 6.0895329 1.2223543 4278190335
7.6970048 6.08956 1.215664 4278190335
7.7093081 6.0895858 1.2089232 4278190335
7.7339745 6.0896401 1.1952901 4278190335
7.746336 6.0896692 1.1883975 4278190335
7.7587142 6.0896969 1.1814541 4278190335
7.7711105 6.0897269 1.1744601 4278190335
7.7835221 6.0897574 1.167415 4278190335
7.7959495 6.0897875 1.1603185 4278190335
7.8083916 6.0898194 1.1531708 4278190335
7.820848 6.0898504 1.1459714 4278190335
7.8458004 6.0899153 1.1314188 4278190335
7.8333178 6.0898824 1.138721 4278190335
7.7026486 6.0869508 0.86790717 4278190335
7.7895441 6.0870671 0.79340583 4278190335
7.7785063 6.0870485 0.8026818 4278190335
7.7675195 6.0870314 0.81196892 4278190335
7.7565827 6.0870152 0.82126719 4278190335
7.7456961 6.0870004 0.83057582 4278190335
7.7348595 6.0869861 0.83989459 4278190335
7.7240725 6.0869727 0.84922296 4278190335
7.713336 6.0869608 0.85856068 4278190335
7.800633 6.0870886 0.78414178 4278190335
7.6920109 6.0869412 0.87726188 4278190335
7.6814218 6.0869336 0.88662452 4278190335
7.6708832 6.0869265 0.89599442 4278190335
7.6603928 6.0869217 0.90537149 4278190335
7.6499515 6.086916 0.91475475 4278190335
7.6395593 6.0869131 0.92414409 4278190335
7.6292162 6.0869107 0.93353891 4278190335
7.8454962 6.0871801 0.7472105 4278190335
7.8342032 6.0871563 0.75642383 4278190335
7.8229618 6.087132 0.76565033 4278190335
7.8117714 6.0871091 0.77488971 4278190335
7.7586856 6.0851707 0.2426344 4278190335
7.6404033 6.0844936 0.24609055 4278190335
7.6550446 6.0845747 0.24580479 4278190335
7.6697273 6.0846562 0.24547815 4278190335
7.6844521 6.0847397 0.24511021 4278190335
7.6992178 6.084825 0.2447004 4278190335
7.7140236 6.0849104 0.24424838 4278190335
7.7288704 6.0849953 0.24375366 4278190335
7.7437577 6.085083 0.24321583 4278190335
7.625802 6.0844126 0.24633582 4278190335
7.7736535 6.0852594 0.24200892 4278190335
7.788662 6.08535 0.24133903 4278190335
7.8037105 6.0854406 0.24062422 4278190335
7.818799 6.0855312 0.23986393 4278190335
7.8339272 6.0856237 0.23905787 4278190335
7.8490953 6.0857182 0.23820557 4278190335
7.8591385 6.0789762 0.08889541 4278190335
7.8720994 6.0789676 0.080710948 4278190335
7.8850489 6.0789599 0.072465315 4278190335
7.8979893 6.0789528 0.064158328 4278190335
7.9109182 6.0789452 0.055789828 4278190335
7.9238372 6.0789394 0.047359664 4278190335
7.9367452 6.0789328 0.038867708 4278190335
7.8461685 6.0789852 0.097018808 4278190335
7.7420578 6.0790815 0.15982869 4278190335
7.755105 6.0790677 0.15218753 4278190335
7.7681422 6.0790529 0.14448673 4278190335
7.7811699 6.0790405 0.13672608 4278190335
7.794189 6.0790281 0.12890536 4278190335
7.8071985 6.0790172 0.12102444 4278190335
7.8201971 6.0790052 0.11308317 4278190335
7.8331881 6.0789967 0.10508136 4278190335
7.9294686 6.0811524 0.43599421 4278190335
7.9472718 6.0805345 0.31772721 4278190335
7.9448428 6.0806084 0.33247229 4278190335
7.9424715 6.0806828 0.34722793 4278190335
7.9401598 6.0807576 0.36199427 4278190335
7.9379048 6.0808334 0.37677163 4278190335
7.935709 6.0809121 0.39156011 4278190335
7.9335709 6.0809913 0.40635991 4278190335
7.9314914 6.0810714 0.42117119 4278190335
7.94976 6.0804625 0.30299255 4278190335
7.9275031 6.0812349 0.45082918 4278190335
7.9255972 6.0813184 0.46567613 4278190335
7.9237471 6.0814047 0.48053539 4278190335
7.9219532 6.0814891 0.49540693 4278190335
7.920217 6.0815768 0.51029128 4278190335
7.918539 6.081666 0.52518827 4278190335
7.9169164 6.0817552 0.54009813 4278190335
7.9717941 6.0799308 0.18546376 4278190335
7.9153495 6.0818458 0.55502129 4278190335
7.9688315 6.0799918 0.20012286 4278190335
7.965929 6.0800567 0.21479069 4278190335
7.9630861 6.0801215 0.22946745 4278190335
7.9603024 6.0801878 0.24415332 4278190335
7.9575782 6.0802541 0.25884858 4278190335
7.9549141 6.0803227 0.27355337 4278190335
7.9523067 6.0803914 0.28826794 4278190335
7.8939595 6.0846095 0.94809246 4278190335
7.8966556 6.0836778 0.82604909 4278190335
7.8961334 6.0837898 0.84124893 4278190335
7.8956647 6.0839033 0.85646427 4278190335
7.8952494 6.0840187 0.87169558 4278190335
7.894886 6.0841346 0.8869428 4278190335
7.8945761 6.0842524 0.902206 4278190335
7.8943191 6.0843697 0.91748524 4278190335
7.8941135 6.0844889 0.9327808 4278190335
7.8972311 6.0835667 0.81086534 4278190335
7.8938584 6.0847306 0.96342057 4278190335
7.8938088 6.0848532 0.97876483 4278190335
7.8938103 6.0849767 0.99412543 4278190335
7.8938642 6.0851021 1.0095026 4278190335
7.8939672 6.0852265 1.0248964 4278190335
7.8941231 6.0853539 1.0403063 4278190335
7.8943291 6.0854821 1.0557331 4278190335
7.9037771 6.0827146 0.68994433 4278190335
7.9138408 6.0819364 0.56995749 4278190335
7.9123878 6.0820312 0.58490723 4278190335
7.9109912 6.0821247 0.5998705 4278190335
7.9096494 6.0822201 0.61484766 4278190335
7.9083643 6.0823169 0.62983859 4278190335
7.9071345 6.0824151 0.6448437 4278190335
7.9059606 6.0825133 0.65986288 4278190335
7.9048409 6.0826135 0.67489636 4278190335
7.9027686 6.0828176 0.70500714 4278190335
7.9018135 6.0829201 0.72008425 4278190335
7.9009147 6.0830264 0.73517668 4278190335
7.9000702 6.0831313 0.75028402 4278190335
7.8992791 6.0832381 0.76540625 4278190335
7.8985419 6.0833454 0.78054392 4278190335
7.8978601 6.0834556 0.79569691 4278190335
7.8945851 6.0856109 1.0711763 4278190335
7.8991289 6.0868173 1.2109081 4278190335
7.8948917 6.0857406 1.0866361 4278190335
7.8952479 6.0858717 1.1021124 4278190335
7.8956552 6.0860033 1.1176051 4278190335
7.8961115 6.0861368 1.1331147 4278190335
7.8966169 6.0862718 1.1486404 4278190335
7.8971725 6.0864077 1.1641829 4278190335
7.8977752 6.0865426 1.1797416 4278190335
7.898428 6.086679 1.1953167 4278190335
7.8998785 6.086956 1.2265162 4278190335
7.9006758 6.0870962 1.2421402 4278190335
7.9015207 6.0872378 1.2577804 4278190335
7.9024129 6.0873799 1.2734364 4278190335
7.9033537 6.087523 1.2891084 4278190335
7.9043398 6.087666 1.3047965 4278190335
7.9053745 6.0878115 1.3204999 4278190335
7.9516764 6.0796208 0.069346562 4278190335
7.8742499 6.0798364 0.16250709 4278190335
7.8840485 6.0798078 0.15103623 4278190335
7.8938131 6.0797796 0.13951568 4278190335
7.903543 6.079751 0.12794536 4278190335
7.913239 6.0797229 0.11632527 4278190335
7.9229007 6.0796957 0.10465535 4278190335
7.9325275 6.07967 0.092935629 4278190335
7.9421206 6.0796442 0.081166029 4278190335
7.864418 6.0798674 0.17392829 4278190335
7.9611983 6.079596 0.057477187 4278190335
7.970685 6.0795708 0.045557905 4278190335
7.7845712 6.0801282 0.26351446 4278190335
7.7336249 6.0803132 0.31790352 4278190335
7.7438765 6.0802741 0.30712378 4278190335
7.754097 6.0802364 0.29629517 4278190335
7.764287 6.0802007 0.28541747 4278190335
7.7744455 6.0801654 0.27449057 4278190335
7.7946663 6.0800929 0.25248912 4278190335
7.804728 6.0800595 0.24141446 4278190335
7.8147588 6.0800261 0.23029047 4278190335
7.8247561 6.0799923 0.21911708 4278190335
7.8347206 6.0799594 0.20789419 4278190335
7.8446531 6.0799289 0.19662179 4278190335
7.8545523 6.0798969 0.18529984 4278190335
7.8140535 6.0791583 0.039630055 4278190335
7.7993135 6.0791454 0.044115782 4278190335
7.7846212 6.0791326 0.04864572 4278190335
7.7699757 6.0791202 0.053219676 4278190335
7.7553773 6.0791101 0.057837531 4278190335
7.7408252 6.0790997 0.062499076 4278190335
7.8288417 6.0791731 0.035188671 4278190335
7.9683423 6.0783381 0.068962984 4278190335
7.9605036 6.0783787 0.081888519 4278190335
7.8962402 6.0787282 0.18377997 4278190335
7.8292747 6.0791216 0.28297293 4278190335
7.8377895 6.0790691 0.2707217 4278190335
7.8462634 6.0790186 0.25842813 4278190335
7.8546963 6.0789685 0.24609233 4278190335
7.8630881 6.078918 0.23371431 4278190335
7.871439 6.0788698 0.22129408 4278190335
7.8797474 6.0788221 0.20883158 4278190335
7.8880138 6.0787749 0.19632682 4278190335
7.9044223 6.0786819 0.17119089 4278190335
7.9125628 6.0786366 0.15855968 4278190335
7.920661 6.0785923 0.1458863 4278190335
7.9287157 6.0785484 0.13317084 4278190335
7.9367275 6.0785036 0.1204133 4278190335
7.9446959 6.0784612 0.10761371 4278190335
7.952621 6.0784192 0.094772123 4278190335
7.8207197 6.079174 0.29518193 4278190335
7.7508445 6.0796156 0.39133221 4278190335
7.7419343 6.0796747 0.4031609 4278190335
7.7597165 6.0795598 0.37946135 4278190335
7.768549 6.0795021 0.36754823 4278190335
7.7773418 6.0794444 0.35559282 4278190335
7.7860975 6.07939 0.34359527 4278190335
7.7948122 6.0793347 0.33155531 4278190335
7.8034883 6.0792809 0.31947312 4278190335
7.8121243 6.0792274 0.30734867 4278190335
7.8425627 6.078073 0.055422347 4278190335
7.8851366 6.0780625 0.037098106 4278190335
7.8708925 6.0780644 0.043166824 4278190335
7.8567014 6.0780678 0.049274951 4278190335
7.828476 6.0780783 0.061608914 4278190335
7.8144407 6.0780849 0.067834541 4278190335
7.800458 6.0780931 0.074099138 4278190335
7.7865257 6.0781026 0.080402561 4278190335
7.772645 6.0781121 0.086744696 4278190335
7.7588143 6.0781236 0.093125433 4278190335
7.7450352 6.0781355 0.099544652 4278190335
7.7567105 6.0806327 0.44717911 4278190335
7.8092318 6.0801163 0.34112334 4278190335
7.8024735 6.0801754 0.35431701 4278190335
7.7957711 6.0802388 0.36752862 4278190335
7.789124 6.0803022 0.38075826 4278190335
7.7825317 6.0803642 0.39400586 4278190335
7.7759948 6.0804291 0.40727174 4278190335
7.7695122 6.0804958 0.42055583 4278190335
7.7630849 6.0805631 0.43385828 4278190335
7.8160462 6.0800562 0.32794744 4278190335
7.7503901 6.0807014 0.46051851 4278190335
7.7441244 6.0807734 0.47387657 4278190335
7.7379127 6.0808468 0.48725325 4278190335
7.8726001 6.0796242 0.22316851 4278190335
7.9328694 6.0792694 0.1194647 4278190335
7.9251275 6.079309 0.13237104 4278190335
7.9174471 6.0793514 0.14529331 4278190335
7.9098253 6.0793943 0.15823163 4278190335
7.9022622 6.0794363 0.17118609 4278190335
7.8947582 6.0794821 0.18415689 4278190335
7.8873148 6.0795283 0.19714418 4278190335
7.8799281 6.0795765 0.21014801 4278190335
7.8653307 6.0796747 0.2362058 4278190335
7.8581181 6.0797267 0.24926005 4278190335
7.8509641 6.0797777 0.26233137 4278190335
7.8438663 6.0798316 0.27541986 4278190335
7.8368273 6.0798869 0.28852555 4278190335
7.829843 6.0799413 0.30164859 4278190335
7.822917 6.0799971 0.31478927 4278190335
7.94067 6.0792298 0.10657416 4278190335
7.9724774 6.079083 0.055167034 4278190335
7.9644341 6.0791178 0.067995816 4278190335
7.9564528 6.079155 0.080839843 4278190335
7.9485307 6.0791907 0.093699247 4278190335
7.7398119 6.0784154 0.06099879 4278190335
7.7546782 6.0784225 0.057361901 4278190335
7.7695603 6.0784311 0.053664189 4278190335
7.7844558 6.0784378 0.049905408 4278190335
7.799367 6.0784469 0.04608535 4278190335
7.8142915 6.0784554 0.042203747 4278190335
7.8292308 6.0784645 0.038260374 4278190335
7.8441854 6.0784755 0.034254979 4278190335
7.9536338 6.078434 0.035963669 4278190335
7.9418039 6.0784507 0.045799043 4278190335
7.9300346 6.0784707 0.055660762 4278190335
7.918324 6.0784898 0.06554883 4278190335
7.9066725 6.0785089 0.075463295 4278190335
7.8950796 6.0785308 0.085404158 4278190335
7.8835454 6.0785542 0.095371448 4278190335
7.7387781 6.0789504 0.22735663 4278190335
7.7495809 6.0789142 0.21704489 4278190335
7.7604361 6.0788765 0.20675956 4278190335
7.7713475 6.0788417 0.19650085 4278190335
7.7823148 6.0788074 0.18626863 4278190335
7.7933364 6.0787754 0.17606293 4278190335
7.8044143 6.0787435 0.16588372 4278190335
7.8155484 6.0787134 0.15573105 4278190335
7.8267388 6.0786843 0.14560486 4278190335
7.8379855 6.0786552 0.13550523 4278190335
7.8492894 6.0786281 0.12543204 4278190335
7.8606501 6.0786014 0.11538537 4278190335
7.8720689 6.078578 0.10536517 4278190335
7.9288454 6.0801554 0.3515155 4278190335
7.8929524 6.0807381 0.46529219 4278190335
7.8976288 6.0806623 0.45114109 4278190335
7.9022517 6.0805874 0.43696949 4278190335
7.9068208 6.0805154 0.42277747 4278190335
7.9113345 6.0804405 0.40856516 4278190335
7.9157948 6.0803685 0.39433268 4278190335
7.9202003 6.0802975 0.38008019 4278190335
7.9245496 6.0802255 0.36580771 4278190335
7.8882213 6.0808144 0.4794226 4278190335
7.9330859 6.0800862 0.33720365 4278190335
7.9372692 6.0800171 0.32287222 4278190335
7.9413991 6.0799503 0.30852148 4278190335
7.9454732 6.0798836 0.29415134 4278190335
7.9494901 6.0798159 0.27976203 4278190335
7.9534512 6.079751 0.26535383 4278190335
7.9573569 6.0796862 0.25092667 4278190335
7.8484716 6.0814514 0.59170872 4278190335
7.805418 6.0821371 0.70260495 4278190335
7.8109756 6.0820484 0.68882102 4278190335
7.816483 6.0819602 0.67501444 4278190335
7.8219423 6.0818734 0.66118562 4278190335
7.8273497 6.0817871 0.6473344 4278190335
7.8327065 6.0817018 0.633461 4278190335
7.8380122 6.0816174 0.61956537 4278190335
7.8432684 6.0815349 0.60564798 4278190335
7.961206 6.0796227 0.2364807 4278190335
7.8536239 6.0813689 0.57774764 4278190335
7.8587236 6.0812883 0.56376523 4278190335
7.8637719 6.0812058 0.549761 4278190335
7.8687677 6.0811262 0.53573561 4278190335
7.8737102 6.0810475 0.52168894 4278190335
7.8786011 6.0809693 0.50762111 4278190335
7.8834372 6.0808916 0.49353236 4278190335
7.9649982 6.0795603 0.22201617 4278190335
7.9687333 6.0794964 0.20753305 4278190335
7.9724126 6.0794353 0.19303159 4278190335
7.7998104 6.0822248 0.71636629 4278190335
7.7532024 6.0829635 0.82562673 4278190335
7.7349439 6.0832524 0.86621112 4278190335
7.7410765 6.0831547 0.85270691 4278190335
7.7471623 6.0830593 0.83917868 4278190335
7.7591963 6.0828691 0.812051 4278190335
7.765141 6.0827732 0.79845166 4278190335
7.77104 6.0826817 0.78482884 4278190335
7.7768908 6.0825891 0.7711826 4278190335
7.7826934 6.0824971 0.75751311 4278190335
7.7884474 6.0824051 0.74382049 4278190335
7.7941537 6.0823145 0.73010486 4278190335
7.8783917 6.0809026 0.11886437 4278190335
7.889595 6.0808949 0.10857489 4278190335
7.9007721 6.0808864 0.09822958 4278190335
7.9119248 6.0808783 0.087828368 4278190335
7.9230528 6.0808721 0.077371202 4278190335
7.934155 6.0808644 0.066857934 4278190335
7.9452324 6.0808597 0.056288522 4278190335
7.9562836 6.0808544 0.045662921 4278190335
7.8671651 6.0809116 0.12909812 4278190335
7.7764859 6.0810061 0.20897324 4278190335
7.7420974 6.0810504 0.2380188 4278190335
7.7535825 6.0810342 0.22839157 4278190335
7.7650456 6.0810199 0.2187098 4278190335
7.7879028 6.0809927 0.19918191 4278190335
7.7992969 6.0809789 0.18933558 4278190335
7.810668 6.0809674 0.17943424 4278190335
7.8220153 6.0809541 0.1694777 4278190335
7.8333383 6.0809431 0.15946595 4278190335
7.8446379 6.0809317 0.1493988 4278190335
7.8559136 6.0809212 0.13927625 4278190335
7.9353638 6.0813622 0.060150951 4278190335
7.9578257 6.0813622 0.039247189 4278190335
7.9465647 6.0813618 0.049687032 4278190335
7.9242239 6.0813651 0.070639014 4278190335
7.9131436 6.0813684 0.081151307 4278190335
7.9021225 6.0813727 0.091687821 4278190335
7.89116 6.0813775 0.10224862 4278190335
7.8802562 6.0813837 0.11283371 4278190335
7.869411 6.0813923 0.12344316 4278190335
7.858624 6.0814013 0.13407706 4278190335
7.8478956 6.0814118 0.14473535 4278190335
7.7437272 6.0815835 0.25266823 4278190335
7.7538934 6.0815611 0.24176417 4278190335
7.7641144 6.0815396 0.23088485 4278190335
7.7743902 6.0815187 0.22003002 4278190335
7.7847219 6.081501 0.20919994 4278190335
7.7951097 6.0814829 0.19839443 4278190335
7.805553 6.0814662 0.18761352 4278190335
7.8160539 6.0814509 0.17685717 4278190335
7.8266101 6.0814362 0.1661254 4278190335
7.8372245 6.0814233 0.15541813 4278190335
7.8341389 6.0807934 0.071314961 4278190335
7.9033418 6.0808907 0.037139606 4278190335
7.8893929 6.0808678 0.043900706 4278190335
7.8754978 6.0808473 0.050698873 4278190335
7.8616581 6.0808296 0.057534032 4278190335
7.8478723 6.0808096 0.064406082 4278190335
7.8204603 6.0807786 0.078260563 4278190335
7.8068352 6.0807638 0.085242793 4278190335
7.793262 6.0807505 0.092261575 4278190335
7.7797418 6.0807376 0.099316761 4278190335
7.766274 6.0807266 0.10640832 4278190335
7.7528577 6.0807185 0.11353611 4278190335
7.7394934 6.0807104 0.12070005 4278190335
7.7753139 6.0822806 0.40549785 4278190335
7.7336702 6.0825171 0.46670157 4278190335
7.7420812 6.0824695 0.45453921 4278190335
7.7504506 6.0824203 0.44233766 4278190335
7.75878 6.0823727 0.43009695 4278190335
7.7670674 6.0823259 0.41781691 4278190335
7.7835178 6.0822334 0.39313957 4278190335
7.7916803 6.08219 0.38074219 4278190335
7.7998009 6.0821452 0.36830559 4278190335
7.8078785 6.0821009 0.35582986 4278190335
7.8159137 6.0820584 0.34331512 4278190335
7.8239059 6.0820146 0.33076128 4278190335
7.8318548 6.0819726 0.3181684 4278190335
7.8397613 6.0819311 0.30553648 4278190335
7.9744101 6.0812936 0.07152804 4278190335
7.96732 6.0813231 0.084856093 4278190335
7.9089255 6.0815873 0.19009824 4278190335
7.8476233 6.0818911 0.2928656 4278190335
7.8554416 6.081851 0.28015566 4278190335
7.8632164 6.081811 0.26740694 4278190335
7.8709459 6.0817723 0.25461921 4278190335
7.8786316 6.0817342 0.2417926 4278190335
7.8862729 6.0816965 0.22892718 4278190335
7.8938684 6.0816603 0.21602298 4278190335
7.9014196 6.0816231 0.20307998 4278190335
7.9163852 6.0815516 0.17707786 4278190335
7.9238005 6.0815172 0.16401884 4278190335
7.9311695 6.0814834 0.15092123 4278190335
7.9384923 6.08145 0.13778508 4278190335
7.9457693 6.0814171 0.12461043 4278190335
7.9529996 6.0813847 0.11139734 4278190335
7.9601822 6.0813527 0.098145887 4278190335
7.7767544 6.0807257 0.29206133 4278190335
7.8471045 6.0804191 0.1956505 4278190335
7.8381124 6.0804529 0.20762968 4278190335
7.8291769 6.0804882 0.21962929 4278190335
7.8202982 6.0805244 0.23164955 4278190335
7.8114767 6.0805626 0.24369042 4278190335
7.802711 6.0806017 0.25575194 4278190335
7.7940025 6.0806413 0.26783422 4278190335
7.7853513 6.0806847 0.27993742 4278190335
7.8561549 6.0803866 0.18369173 4278190335
7.7682128 6.0807691 0.30420637 4278190335
7.7597265 6.0808134 0.31637228 4278190335
7.7512965 6.0808611 0.32855931 4278190335
7.7429199 6.0809083 0.34076744 4278190335
7.7345982 6.0809584 0.3529968 4278190335
7.8652639 6.0803552 0.17175332 4278190335
7.8744297 6.0803237 0.1598351 4278190335
7.8836555 6.0802937 0.14793712 4278190335
7.89294 6.080267 0.13605922 4278190335
7.9022822 6.0802383 0.12420129 4278190335
7.9116845 6.0802135 0.11236334 4278190335
7.9211473 6.0801892 0.10054519 4278190335
7.9306679 6.0801659 0.088746771 4278190335
7.9402504 6.0801439 0.076967992 4278190335
7.9498925 6.0801229 0.065208785 4278190335
7.9595947 6.080102 0.053469002 4278190335
7.9693594 6.0800843 0.041748594 4278190335
7.8018851 6.0797343 0.12418215 4278190335
7.7894545 6.0797448 0.13285489 4278190335
7.7770767 6.0797558 0.14155886 4278190335
7.7647538 6.0797682 0.15029396 4278190335
7.7524853 6.079782 0.1590603 4278190335
7.7402701 6.0797973 0.16785769 4278190335
7.8143716 6.0797257 0.11554074 4278190335
7.916275 6.0796952 0.047541101 4278190335
7.9292679 6.0796957 0.039183147 4278190335
7.9033389 6.0796947 0.055930678 4278190335
7.89046 6.0796957 0.064351864 4278190335
7.8776379 6.0796976 0.072804622 4278190335
7.8648729 6.0797009 0.081288926 4278190335
7.8521638 6.0797057 0.089804724 4278190335
7.8395104 6.0797105 0.09835197 4278190335
7.8269138 6.0797186 0.10693067 4278190335
7.8050961 6.0816984 0.49177465 4278190335
7.7498164 6.0822458 0.59649462 4278190335
7.7568874 6.0821757 0.58351362 4278190335
7.7639136 6.0821052 0.57050133 4278190335
7.7708941 6.0820351 0.55745775 4278190335
7.7778277 6.0819674 0.54438317 4278190335
7.7847152 6.0818996 0.53127748 4278190335
7.7915554 6.081831 0.51814079 4278190335
7.7983494 6.0817633 0.50497311 4278190335
7.7426996 6.0823188 0.60944444 4278190335
7.8117943 6.0816317 0.47854519 4278190335
7.8184462 6.0815682 0.46528524 4278190335
7.8250489 6.0815034 0.45199451 4278190335
7.8316031 6.081439 0.43867311 4278190335
7.83811 6.081377 0.4253214 4278190335
7.8445678 6.081315 0.411939 4278190335
7.8509765 6.081254 0.39852628 4278190335
7.857336 6.081193 0.38508338 4278190335
7.7355375 6.0823903 0.62236279 4278190335
7.957725 6.080267 0.15199354 4278190335
7.9631648 6.0802169 0.13801913 4278190335
7.9685526 6.0801697 0.12401607 4278190335
7.9738865 6.0801234 0.10998449 4278190335
7.9522319 6.0803146 0.16593915 4278190335
7.9466867 6.0803642 0.17985596 4278190335
7.9410896 6.0804148 0.1937438 4278190335
7.9354396 6.0804667 0.20760265 4278190335
7.929738 6.0805182 0.22143231 4278190335
7.9239855 6.0805707 0.23523267 4278190335
7.9181805 6.0806236 0.24900386 4278190335
7.9123249 6.0806775 0.2627455 4278190335
7.9064169 6.0807319 0.27645776 4278190335
7.9004583 6.0807877 0.29014033 4278190335
7.8944488 6.0808434 0.30379331 4278190335
7.8883882 6.0809002 0.31741649 4278190335
7.8822784 6.0809565 0.33100986 4278190335
7.8761172 6.0810151 0.34457332 4278190335
7.8699069 6.0810733 0.35810676 4278190335
7.863646 6.0811324 0.37161016 4278190335
7.8379965 6.0800838 0.072556786 4278190335
7.851954 6.0800948 0.066059269 4278190335
7.865912 6.0801072 0.059498969 4278190335
7.8798709 6.0801215 0.052875709 4278190335
7.8938298 6.0801349 0.046189267 4278190335
7.9077888 6.0801492 0.039439455 4278190335
7.824038 6.08007 0.078991719 4278190335
7.7403092 6.0800138 0.11629881 4278190335
7.7542615 6.0800214 0.11023499 4278190335
7.7682157 6.0800309 0.10410983 4278190335
7.7821708 6.0800405 0.097923145 4278190335
7.7961254 6.0800495 0.091674693 4278190335
7.8100815 6.0800591 0.08536429 4278190335
7.8024817 6.0837722 0.7002703 4278190335
7.827507 6.0830522 0.58370048 4278190335
7.8241906 6.083138 0.59821516 4278190335
7.8209291 6.0832243 0.61274588 4278190335
7.8177209 6.0833125 0.62729257 4278190335
7.8145661 6.0834026 0.64185554 4278190335
7.8114643 6.0834918 0.65643454 4278190335
7.8084173 6.0835853 0.67103004 4278190335
7.8054228 6.0836792 0.68564212 4278190335
7.8308778 6.0829682 0.56920153 4278190335
7.7995915 6.0838671 0.71491539 4278190335
7.7967553 6.0839639 0.72957718 4278190335
7.7939711 6.0840621 0.7442559 4278190335
7.7912378 6.0841608 0.75895113 4278190335
7.7885575 6.0842609 0.7736637 4278190335
7.7859287 6.0843635 0.78839314 4278190335
7.7833505 6.0844665 0.80313957 4278190335
7.859817 6.0823364 0.45376369 4278190335
7.8923411 6.0817833 0.33926097 4278190335
7.8880773 6.0818491 0.35352525 4278190335
7.8838692 6.0819144 0.3678031 4278190335
7.8797183 6.0819807 0.38209471 4278190335
7.8756251 6.0820494 0.39640018 4278190335
7.8715887 6.0821199 0.41071957 4278190335
7.8676076 6.08219 0.42505315 4278190335
7.8636847 6.082262 0.43940118 4278190335
7.7808247 6.0845695 0.81790316 4278190335
7.8560052 6.0824118 0.46814078 4278190335
7.8522491 6.0824862 0.48253256 4278190335
7.8485494 6.0825624 0.49693936 4278190335
7.8449049 6.0826421 0.51136124 4278190335
7.8413162 6.0827217 0.5257982 4278190335
7.8377814 6.0828023 0.54025036 4278190335
7.8343015 6.0828834 0.55471814 4278190335
7.7323775 6.0876732 1.2078373 4278190335
7.7438498 6.086638 1.0866154 4278190335
7.7422543 6.0867634 1.101709 4278190335
7.740705 6.0868897 1.1168193 4278190335
7.739202 6.0870185 1.1319469 4278190335
7.7377453 6.0871477 1.1470917 4278190335
7.7363358 6.0872769 1.1622529 4278190335
7.7349706 6.0874085 1.1774312 4278190335
7.7336516 6.0875401 1.192626 4278190335
7.7454925 6.0865135 1.0715394 4278190335
7.7603531 6.0855575 0.95155448 4278190335
7.7783489 6.0846744 0.83268392 4278190335
7.7759242 6.0847816 0.84748214 4278190335
7.7735496 6.0848885 0.86229748 4278190335
7.7712259 6.0849977 0.87713009 4278190335
7.7689514 6.0851064 0.89198017 4278190335
7.7667274 6.0852175 0.9068476 4278190335
7.7645535 6.0853295 0.92173225 4278190335
7.7624283 6.0854425 0.93663472 4278190335
7.8966646 6.0817199 0.32501003 4278190335
7.7583261 6.0856724 0.96649158 4278190335
7.7563486 6.0857892 0.98144627 4278190335
7.7544188 6.085907 0.99641818 4278190335
7.7525382 6.0860262 1.0114077 4278190335
7.7507052 6.0861464 1.0264146 4278190335
7.74892 6.0862679 1.0414388 4278190335
7.7471824 6.08639 1.0564804 4278190335
7.9333386 6.0812564 0.21146533 4278190335
7.9737992 6.080873 0.098678842 4278190335
7.9685316 6.0809164 0.11273886 4278190335
7.9633231 6.0809617 0.12680946 4278190335
7.9581757 6.0810075 0.14089081 4278190335
7.9530897 6.0810552 0.1549831 4278190335
7.9480615 6.0811033 0.16908647 4278190335
7.9430943 6.0811524 0.18320118 4278190335
7.9381871 6.0812044 0.19732742 4278190335
7.9285493 6.0813112 0.22561508 4278190335
7.9238181 6.0813651 0.23977685 4278190335
7.9191461 6.0814214 0.25395083 4278190335
7.9145336 6.0814791 0.26813722 4278190335
7.9099789 6.0815372 0.28233612 4278190335
7.9054828 6.0815964 0.29654789 4278190335
7.9010448 6.0816588 0.31077245 4278190335
7.9689174 6.0832 0.62250125 4278190335
7.9713182 6.0831084 0.6076234 4278190335
7.9736638 6.0830188 0.59273916 4278190335
7.9664598 6.0832911 0.63737237 4278190335
7.9447885 6.0840497 0.7560851 4278190335
7.9196286 6.0848551 0.87427318 4278190335
7.9229598 6.0847521 0.85953164 4278190335
7.9262381 6.0846491 0.84478068 4278190335
7.9294639 6.084547 0.83002019 4278190335
7.9326372 6.0844474 0.81525081 4278190335
7.9357557 6.0843453 0.80047226 4278190335
7.9388208 6.0842462 0.78568512 4278190335
7.9418321 6.0841475 0.77088922 4278190335
7.94769 6.0839515 0.74127263 4278190335
7.9505382 6.0838561 0.72645253 4278190335
7.9533305 6.0837593 0.71162421 4278190335
7.956068 6.0836649 0.69678843 4278190335
7.9587493 6.083569 0.68194509 4278190335
7.9613748 6.0834761 0.66709465 4278190335
7.9639454 6.083384 0.652237 4278190335
7.9162426 6.0849586 0.88900489 4278190335
7.887311 6.0858154 1.0064834 4278190335
7.8551865 6.0867186 1.1232162 4278190335
7.8593712 6.0866027 1.1086695 4278190335
7.8635077 6.0864873 1.0941093 4278190335
7.8675966 6.0863733 1.0795361 4278190335
7.8716369 6.0862613 1.0649501 4278190335
7.8756304 6.0861497 1.0503519 4278190335
7.8795724 6.0860367 1.035741 4278190335
7.8834667 6.0859265 1.0211183 4278190335
7.850955 6.086834 1.1377496 4278190335
7.8911061 6.0857067 0.9918372 4278190335
7.8948493 6.0855975 0.97717935 4278190335
7.8985438 6.0854902 0.96251035 4278190335
7.9021864 6.085382 0.94783038 4278190335
7.9057784 6.0852757 0.93313962 4278190335
7.909318 6.0851693 0.91843837 4278190335
7.912806 6.085063 0.90372682 4278190335
7.8154459 6.0877829 1.2534988 4278190335
7.7966275 6.0882726 1.3109998 4278190335
7.8013964 6.0881486 1.2966496 4278190335
7.8061218 6.0880256 1.2822822 4278190335
7.8108048 6.087904 1.2678987 4278190335
7.8200412 6.0876603 1.2390827 4278190335
7.8245935 6.0875416 1.2246515 4278190335
7.8291006 6.0874214 1.2102045 4278190335
7.8335629 6.0873027 1.1957427 4278190335
7.8379803 6.0871849 1.1812661 4278190335
7.842351 6.0870671 1.1667746 4278190335
7.8466763 6.0869489 1.1522692 4278190335
7.9443569 6.0823903 0.92839473 4278190335
7.9361448 6.0821428 0.91470599 4278190335
7.9526272 6.0826387 0.94208449 4278190335
7.9609551 6.0828891 0.95577532 4278190335
7.9693398 6.0831399 0.9694671 4278190335
7.9777832 6.0833926 0.9831602 4278190335
7.9862828 6.0836473 0.99685448 4278190335
7.9948406 6.0839024 1.0105501 4278190335
8.0034552 6.0841584 1.0242472 4278190335
8.012126 6.0844169 1.0379456 4278190335
8.0927 6.0867863 1.1613008 4278190335
8.020854 6.0846748 1.0516454 4278190335
8.0296383 6.0849338 1.0653467 4278190335
8.0384798 6.0851965 1.0790498 4278190335
8.0473776 6.0854588 1.0927544 4278190335
8.0563316 6.085722 1.1064603 4278190335
8.0653391 6.0859857 1.1201681 4278190335
8.0744047 6.0862522 1.1338775 4278190335
8.0835247 6.0865202 1.1475884 4278190335
8.1019306 6.0870562 1.175015 4278190335
8.1112165 6.0873256 1.1887306 4278190335
8.1205568 6.0875983 1.202448 4278190335
8.1299515 6.0878701 1.2161667 4278190335
8.1393995 6.0881438 1.2298868 4278190335
8.1489019 6.0884175 1.2436084 4278190335
8.1584578 6.0886936 1.2573314 4278190335
8.1554155 6.0795126 0.49541074 4278190335
8.1438704 6.0792747 0.4841862 4278190335
7.9332099 6.0751786 0.29204214 4278190335
7.9450545 6.075398 0.30222219 4278190335
8.0392122 6.0771794 0.38576141 4278190335
8.132308 6.0790362 0.47301888 4278190335
8.1207294 6.0788012 0.46190932 4278190335
8.1091337 6.0785656 0.4508574 4278190335
8.0975208 6.0783319 0.43986323 4278190335
8.0858927 6.0780978 0.428927 4278190335
8.0742474 6.077867 0.41804856 4278190335
8.0625849 6.0776372 0.40722814 4278190335
8.0509062 6.0774074 0.39646581 4278190335
8.0274992 6.076952 0.37511522 4278190335
8.0157709 6.0767269 0.36452717 4278190335
8.0040264 6.0765023 0.35399729 4278190335
7.9922647 6.0762787 0.34352571 4278190335
7.9804873 6.0760555 0.33311236 4278190335
7.9686918 6.0758348 0.3227573 4278190335
7.9568815 6.0756154 0.31246054 4278190335
8.1373978 6.0748262 0.062323552 4278190335
8.153614 6.0750031 0.063395768 4278190335
8.1212234 6.0746503 0.061199907 4278190335
8.0091534 6.0734344 0.051896188 4278190335
8.0250406 6.073606 0.053379226 4278190335
8.0409689 6.0737782 0.054810975 4278190335
8.0569372 6.0739508 0.056191444 4278190335
8.0729465 6.0741248 0.057520606 4278190335
8.0889978 6.0742993 0.058798417 4278190335
8.1050901 6.0744734 0.060024865 4278190335
8.0668526 6.0827618 0.88438356 4278190335
8.118681 6.084713 1.001696 4278190335
8.1123295 6.0844665 0.98690015 4278190335
8.1059427 6.0842204 0.97214121 4278190335
8.0995178 6.0839767 0.95742005 4278190335
8.0930586 6.0837312 0.94273627 4278190335
8.0865622 6.083487 0.92809021 4278190335
8.0800295 6.0832453 0.91348296 4278190335
8.0734596 6.0830035 0.89891392 4278190335
8.1249952 6.0849614 1.0165291 4278190335
8.0602102 6.082521 0.86989248 4278190335
8.0535278 6.0822811 0.85544056 4278190335
8.046813 6.0820436 0.84102839 4278190335
8.0400581 6.0818057 0.82665569 4278190335
8.0332689 6.0815692 0.81232315 4278190335
8.0264397 6.0813322 0.79803061 4278190335
8.0195761 6.0810966 0.78377885 4278190335
8.0126743 6.080863 0.76956743 4278190335
8.1560249 6.0862103 1.0912331 4278190335
8.1498919 6.0859594 1.0762215 4278190335
8.1437216 6.0857081 1.0612448 4278190335
8.137516 6.0854588 1.0463035 4278190335
8.1312733 6.0852103 1.0313983 4278190335
7.9488859 6.0787935 0.64352596 4278190335
8.0057354 6.0806293 0.75539702 4278190335
7.9987588 6.0803957 0.7412675 4278190335
7.9917459 6.0801644 0.72717929 4278190335
7.9846959 6.0799341 0.71313262 4278190335
7.9776082 6.0797052 0.69912738 4278190335
7.9704838 6.0794754 0.68516392 4278190335
7.9633217 6.079248 0.67124254 4278190335
7.9561219 6.0790205 0.65736318 4278190335
7.9416113 6.0785694 0.62973142 4278190335
7.9342995 6.0783448 0.61597925 4278190335
8.0414362 6.0750394 0.16343114 4278190335
8.1588783 6.0767441 0.21570374 4278190335
8.1441708 6.0765262 0.20894945 4278190335
8.1294708 6.0763092 0.20225814 4278190335
8.1147795 6.0760937 0.19562969 4278190335
8.1000938 6.075881 0.18906423 4278190335
8.0854187 6.0756674 0.18256167 4278190335
8.0707502 6.0754576 0.17612198 4278190335
8.0560894 6.0752473 0.16974512 4278190335
8.0267906 6.0748315 0.15717989 4278190335
8.0121536 6.0746255 0.15099142 4278190335
7.9975238 6.0744214 0.14486566 4278190335
7.9829016 6.0742192 0.13880254 4278190335
7.9682865 6.0740185 0.13280201 4278190335
7.9536796 6.0738182 0.12686405 4278190335
7.9390802 6.0736194 0.12098858 4278190335
8.1054316 6.0806599 0.64761132 4278190335
8.0124311 6.0787396 0.55889159 4278190335
8.0238419 6.0789752 0.57002968 4278190335
8.0353136 6.0792122 0.58115381 4278190335
8.0468464 6.0794511 0.59226394 4278190335
8.0584402 6.0796905 0.6033603 4278190335
8.070096 6.0799308 0.61444324 4278190335
8.0818129 6.0801721 0.62551266 4278190335
8.0935917 6.0804152 0.63656867 4278190335
8.0010824 6.0785041 0.54773939 4278190335
8.1173334 6.080905 0.65864104 4278190335
8.1292963 6.081151 0.66965771 4278190335
8.1413221 6.0813994 0.6806615 4278190335
8.1534081 6.0816474 0.69165236 4278190335
7.9342699 6.0771203 0.48052377 4278190335
7.9452534 6.0773473 0.49176303 4278190335
7.9562969 6.0775771 0.5029875 4278190335
7.9674015 6.0778069 0.51419729 4278190335
7.9785676 6.0780392 0.52539247 4278190335
7.9897943 6.0782709 0.53657323 4278190335
7.9609299 6.072835 0.068321921 4278190335
8.0837374 6.0743446 0.10230582 4278190335
8.068326 6.0741501 0.097841948 4278190335
8.0529318 6.0739584 0.093439877 4278190335
8.0375547 6.0737672 0.089099519 4278190335
8.0221958 6.0735774 0.084820867 4278190335
8.0068531 6.073391 0.080603816 4278190335
7.9915285 6.0732036 0.076448366 4278190335
7.9762201 6.0730186 0.072354406 4278190335
8.0991669 6.0745397 0.1068315 4278190335
7.9456558 6.0726523 0.064350799 4278190335
7.9303989 6.0724721 0.060441013 4278190335
8.1455593 6.0751328 0.1207799 4278190335
8.1300774 6.0749331 0.1160685 4278190335
8.1146135 6.0747356 0.11141906 4278190335
7.9331522 6.0754595 0.37194681 4278190335
7.945292 6.0756764 0.3819029 4278190335
8.05725 6.0776801 0.47055015 4278190335
7.9574914 6.0758939 0.39183724 4278190335
7.9697514 6.0761127 0.40175024 4278190335
7.98207 6.076334 0.41164201 4278190335
7.9944496 6.0765553 0.42151242 4278190335
8.0068884 6.0767784 0.43136182 4278190335
8.0193882 6.0770011 0.44119009 4278190335
8.031949 6.0772266 0.45099756 4278190335
8.044569 6.0774527 0.4607842 4278190335
8.0699921 6.0779071 0.48029539 4278190335
8.0827942 6.0781364 0.49002028 4278190335
8.0956573 6.0783672 0.49972481 4278190335
8.1085825 6.0785975 0.50940907 4278190335
8.1215677 6.0788298 0.51907319 4278190335
8.134614 6.0790648 0.52871734 4278190335
8.1477213 6.0792985 0.5383414 4278190335
7.9421763 6.0740085 0.18793912 4278190335
7.9566865 6.0742083 0.19410865 4278190335
7.9712501 6.074409 0.20024103 4278190335
7.985867 6.0746107 0.20633622 4278190335
8.0005379 6.0748124 0.21239415 4278190335
8.0152617 6.0750165 0.21841498 4278190335
8.0300388 6.0752196 0.22439872 4278190335
8.0448704 6.0754261 0.23034535 4278190335
8.0597572 6.0756321 0.23625501 4278190335
8.0746965 6.0758395 0.24212769 4278190335
8.0896902 6.0760469 0.24796337 4278190335
8.1047382 6.0762558 0.25376216 4278190335
8.1198416 6.0764647 0.25952402 4278190335
8.1350002 6.0766764 0.26524916 4278190335
8.1502123 6.0768867 0.2709375 4278190335
8.1123085 6.0788021 0.32764229 4278190335
8.126874 6.0790362 0.334714 4278190335
8.1414967 6.0792708 0.34175405 4278190335
8.1561775 6.0795069 0.34876269 4278190335
8.0978003 6.0785685 0.32053888 4278190335
7.9837947 6.0767431 0.26256484 4278190335
7.9419761 6.0760751 0.24029467 4278190335
7.9558597 6.0762963 0.24775036 4278190335
7.9697986 6.0765195 0.25517374 4278190335
7.9978471 6.0769672 0.26992375 4278190335
8.0119553 6.0771942 0.2772505 4278190335
8.0261202 6.0774198 0.28454512 4278190335
8.0403423 6.0776472 0.29180768 4278190335
8.0546207 6.0778766 0.29903832 4278190335
8.0689573 6.0781064 0.30623707 4278190335
8.0833502 6.0783372 0.31340387 4278190335
8.0825958 6.0809426 0.5910989 4278190335
7.9884315 6.0789909 0.50450271 4278190335
7.9999886 6.0792308 0.51538175 4278190335
8.0116053 6.0794711 0.52624494 4278190335
8.023284 6.0797138 0.53709239 4278190335
8.0350237 6.079957 0.5479244 4278190335
8.0468245 6.0802021 0.55874091 4278190335
8.0586872 6.0804482 0.56954211 4278190335
8.070611 6.0806952 0.58032823 4278190335
7.9769359 6.0787525 0.49360776 4278190335
8.0946436 6.0811934 0.60185498 4278190335
8.1067514 6.0814433 0.61259598 4278190335
8.1189213 6.0816946 0.62332237 4278190335
8.1311531 6.0819473 0.63403398 4278190335
8.1434469 6.0822024 0.64473146 4278190335
8.1558037 6.0824585 0.65541428 4278190335
7.9315648 6.0778098 0.44986627 4278190335
7.9428167 6.0780444 0.46082619 4278190335
7.9541292 6.0782781 0.4717696 4278190335
7.9655018 6.0785141 0.48269671 4278190335
8.1174917 6.0771074 0.17602025 4278190335
8.1473236 6.0775557 0.18844061 4278190335
8.1324024 6.0773311 0.18219896 4278190335
8.1025925 6.0768857 0.16990438 4278190335
8.0877008 6.0766649 0.16385138 4278190335
8.0728226 6.0764461 0.15786125 4278190335
8.0579529 6.0762296 0.15193389 4278190335
8.0430937 6.0760112 0.14606932 4278190335
8.028245 6.0757976 0.14026743 4278190335
8.0134058 6.0755835 0.13452826 4278190335
7.9985766 6.0753727 0.1288517 4278190335
7.9837584 6.0751624 0.12323771 4278190335
7.9689488 6.0749526 0.11768626 4278190335
7.9541502 6.0747447 0.11219729 4278190335
7.9393611 6.0745387 0.10677071 4278190335
8.0892496 6.0768132 0.11523658 4278190335
7.9635463 6.0751925 0.091742828 4278190335
7.9791002 6.0753932 0.094844498 4278190335
7.994699 6.0755925 0.097899079 4278190335
8.0103426 6.0757947 0.10090655 4278190335
8.0260324 6.0759964 0.10386688 4278190335
8.0417681 6.0762 0.10678004 4278190335
8.0575485 6.0764027 0.10964605 4278190335
8.0733767 6.0766072 0.1124649 4278190335
7.9480381 6.0749941 0.088594072 4278190335
8.1051693 6.0770192 0.11796104 4278190335
8.1211357 6.0772266 0.12063832 4278190335
8.1371489 6.0774336 0.12326843 4278190335
8.1532078 6.0776429 0.12585133 4278190335
7.9325752 6.0747957 0.085398257 4278190335
7.9299555 6.0824194 0.81435585 4278190335
7.9353123 6.082653 0.82904041 4278190335
7.9766746 6.0845475 0.94772714 4278190335
8.0154028 6.0864854 1.0684738 4278190335
8.010705 6.0862408 1.0532728 4278190335
8.0059652 6.0859962 1.0381019 4278190335
8.0011854 6.0857534 1.0229614 4278190335
7.9963641 6.0855107 1.0078517 4278190335
7.9915032 6.0852685 0.99277318 4278190335
7.9866014 6.0850272 0.9777261 4278190335
7.9816585 6.0847869 0.96271044 4278190335
7.9716477 6.0843072 0.93277574 4278190335
7.9665818 6.0840683 0.91785687 4278190335
7.9614739 6.0838318 0.90297085 4278190335
