# .PCD v0.7 - Point Cloud Data file format
VERSION 0.7
FIELDS x y z rgb
SIZE 4 4 4 4
TYPE F F F U
COUNT 1 1 1 1
WIDTH 1094
HEIGHT 1
VIEWPOINT 0 0 0 1 0 0 0
POINTS 1094
DATA ascii
1.6755984 0.45361882 -0.31500819 4278190335
1.6687241 0.45288709 -0.31074351 4278190335
1.8353012 0.50212568 -0.2991915 4278190335
1.825271 0.50156677 -0.2948266 4278190335
1.823215 0.50215358 -0.29077411 4278190335
1.8473419 0.50878531 -0.29083636 4278190335
1.8411664 0.50928122 -0.28664115 4278190335
1.9372826 0.81759185 -0.34319189 4278190335
1.9465539 0.81811929 -0.3415229 4278190335
1.9500449 0.81706047 -0.33959919 4278190335
1.9669905 0.81966591 -0.33926859 4278190335
1.9611796 0.81507379 -0.33489597 4278190335
1.9694872 0.81533682 -0.33318454 4278190335
1.9639084 0.80974388 -0.32978377 4278190335
1.9648081 0.80696541 -0.32670704 4278190335
1.9580334 0.80210882 -0.322292 4278190335
1.9749793 0.80471426 -0.32196137 4278190335
1.9794672 0.8039571 -0.31908137 4278190335
1.9868118 0.80395579 -0.31732756 4278190335
1.9597052 0.79046601 -0.30990031 4278190335
1.9538606 0.78583676 -0.30652642 4278190335
1.9566873 0.78358698 -0.30353466 4278190335
1.9573214 0.7817722 -0.30048487 4278190335
1.9591848 0.77925807 -0.29745063 4278190335
1.9514467 0.77413714 -0.2929931 4278190335
1.9449382 0.76831704 -0.28855112 4278190335
1.9458379 0.76553851 -0.28547448 4278190335
1.9570363 0.76659483 -0.2838904 4278190335
1.9634516 0.76636648 -0.28109536 4278190335
1.9595335 0.76226586 -0.27780637 4278190335
1.8761052 0.57894111 -0.27088049 4278190335
1.8760118 0.5788058 -0.27487719 4278190335
1.8752161 0.57744443 -0.27881536 4278190335
1.875385 0.57634467 -0.28278527 4278190335
1.8752916 0.57620943 -0.28678197 4278190335
1.8572025 0.57024366 -0.28715137 4278190335
1.8746885 0.57378244 -0.29369089 4278190335
1.8543842 0.56822413 -0.29502273 4278190335
1.8497533 0.56585097 -0.29783481 4278190335
1.8576397 0.56684303 -0.30205861 4278190335
1.6880313 0.51972747 -0.30044264 4278190335
1.6824594 0.51712686 -0.30222374 4278190335
1.6884166 0.51759589 -0.30638406 4278190335
1.6933854 0.51776928 -0.31151178 4278190335
1.7080009 0.5205577 -0.31695697 4278190335
1.7072289 0.51923043 -0.31989592 4278190335
1.7093273 0.51865357 -0.32392931 4278190335
1.7073281 0.51802933 -0.32686338 4278190335
1.7241356 0.52037627 -0.33234525 4278190335
1.730069 0.5208112 -0.33750468 4278190335
1.7302616 0.51974541 -0.34047544 4278190335
1.7352539 0.51995301 -0.34460405 4278190335
1.7373524 0.5193761 -0.34863737 4278190335
1.7471682 0.52089131 -0.3529247 4278190335
1.743502 0.51877946 -0.3557685 4278190335
1.7523295 0.51999897 -0.36102322 4278190335
1.7592512 0.5207296 -0.3652153 4278190335
1.7661494 0.52142614 -0.37040651 4278190335
1.7605774 0.51882547 -0.37218764 4278190335
1.7799695 0.52285337 -0.37978989 4278190335
1.7791972 0.52152616 -0.38272884 4278190335
1.7765194 0.51971 -0.38460523 4278190335
1.7670889 0.51606327 -0.38625941 4278190335
1.7477964 0.51083434 -0.38562462 4278190335
1.7607449 0.51213539 -0.3909795 4278190335
1.6881069 0.49479395 -0.37866086 4278190335
1.6930993 0.49500158 -0.38278943 4278190335
1.6786066 0.49104592 -0.38331252 4278190335
1.6835989 0.49125355 -0.3874411 4278190335
1.7141033 0.49619487 -0.39633808 4278190335
1.7334948 0.5002228 -0.40394032 4278190335
1.727923 0.49762204 -0.40572146 4278190335
1.7447065 0.499935 -0.41220248 4278190335
1.7720309 0.50502223 -0.42203015 4278190335
1.7683885 0.50294465 -0.42387477 4278190335
1.7570523 0.49880898 -0.42446628 4278190335
1.7620445 0.49901667 -0.42859486 4278190335
1.7504696 0.49587971 -0.42821401 4278190335
1.7770915 0.4997409 -0.43798319 4278190335
1.7693517 0.49761593 -0.43872848 4278190335
1.7493807 0.49119493 -0.43703592 4278190335
1.7515025 0.4906522 -0.44007015 4278190335
1.6856408 0.47517481 -0.42697445 4278190335
1.5407302 0.44391763 -0.3944557 4278190335
1.518591 0.43797207 -0.3917273 4278190335
1.5022163 0.43356147 -0.39018852 4278190335
1.4957037 0.43073326 -0.3909387 4278190335
1.4959198 0.42970154 -0.39291021 4278190335
1.4843448 0.42656431 -0.39252934 4278190335
1.4874316 0.42628309 -0.39559528 4278190335
1.4946156 0.42604908 -0.39976051 4278190335
1.4830409 0.42291194 -0.39937961 4278190335
1.4822925 0.42161867 -0.40131941 4278190335
1.4825088 0.42058694 -0.40329096 4278190335
1.4865602 0.42056718 -0.4063887 4278190335
1.4605861 0.4136095 -0.4025341 4278190335
1.4646374 0.41358969 -0.40563181 4278190335
1.4785506 0.41515234 -0.41101846 4278190335
1.4806727 0.41460952 -0.41405264 4278190335
1.4827948 0.41406664 -0.41708681 4278190335
1.483011 0.41303495 -0.41905841 4278190335
1.4860977 0.41275364 -0.42212439 4278190335
1.464947 0.40710351 -0.41842845 4278190335
1.4651631 0.40607175 -0.42040002 4278190335
1.4692147 0.40605205 -0.42349771 4278190335
1.4614985 0.40396094 -0.42324379 4278190335
1.4578798 0.40191722 -0.42408919 4278190335
1.4475319 0.39807683 -0.42371321 4278190335
1.4652804 0.4006516 -0.43022606 4278190335
1.4575641 0.39856043 -0.42997214 4278190335
1.4568157 0.39726716 -0.43191192 4278190335
1.4462291 0.39442554 -0.43056357 4278190335
1.4454807 0.39313224 -0.43250337 4278190335
1.4370624 0.38981497 -0.43219087 4278190335
1.4373022 0.3888174 -0.43316326 4278190335
1.425751 0.38571417 -0.43178317 4278190335
1.4367703 0.38649231 -0.43707463 4278190335
1.4360219 0.38519898 -0.43901438 4278190335
1.3579865 0.36974862 -0.41762456 4278190335
1.3690057 0.3705267 -0.422916 4278190335
1.3514749 0.36692131 -0.41837475 4278190335
1.3684973 0.3682358 -0.42582816 4278190335
1.4186543 0.37624046 -0.4423008 4278190335
1.3679889 0.36594477 -0.42874035 4278190335
1.3682288 0.36494723 -0.42971277 4278190335
1.3684453 0.3639155 -0.43168432 4278190335
1.3715556 0.36366832 -0.43375114 4278190335
1.3883156 0.36594746 -0.44123137 4278190335
1.402229 0.36751038 -0.44661808 4278190335
1.3887719 0.3639181 -0.4441753 4278190335
1.3969208 0.36394584 -0.44837236 4278190335
1.3805935 0.35960311 -0.44483516 4278190335
1.3757713 0.35829648 -0.44467646 4278190335
1.318162 0.34723669 -0.42792305 4278190335
1.2939023 0.34183434 -0.4221603 4278190335
1.2852451 0.33951557 -0.42087543 4278190335
1.2915118 0.33908853 -0.42301071 4278190335
1.2876307 0.33800921 -0.42388284 4278190335
1.3056413 0.33961958 -0.43036893 4278190335
1.2782488 0.33443117 -0.42353863 4278190335
1.2708188 0.33140936 -0.42225862 4278190335
1.2494531 0.32679158 -0.41659114 4278190335
1.2398549 0.32424536 -0.41427529 4278190335
1.2251948 0.32139018 -0.41082841 4278190335
1.199053 0.31553286 -0.40300384 4278190335
1.1971012 0.31497654 -0.40393949 4278190335
1.2071793 0.31552735 -0.40820009 4278190335
1.2074194 0.31452966 -0.40917242 4278190335
1.2057301 0.31300879 -0.4100813 4278190335
1.1999669 0.31147465 -0.40889162 4278190335
1.2100452 0.31202552 -0.41315219 4278190335
1.2102851 0.31102777 -0.41412455 4278190335
1.2133955 0.31078061 -0.41619134 4278190335
1.2244384 0.31159309 -0.42048371 4278190335
1.2100407 0.30777314 -0.41700995 4278190335
1.2102807 0.30677545 -0.41798234 4278190335
1.2092935 0.30648074 -0.41894978 4278190335
1.203793 0.30398199 -0.41773331 4278190335
1.2097971 0.30451953 -0.41989532 4278190335
1.1852988 0.30011547 -0.41316015 4278190335
1.1944361 0.30043903 -0.41638985 4278190335
1.1877083 0.29864323 -0.41516843 4278190335
1.1869836 0.2973839 -0.41610909 4278190335
1.1793149 0.29536074 -0.41385674 4278190335
1.1865226 0.29516107 -0.41702285 4278190335
1.1915386 0.29540288 -0.42015234 4278190335
1.1987702 0.29523751 -0.42231935 4278190335
1.1910778 0.29318011 -0.42106622 4278190335
1.1982855 0.29298049 -0.42423233 4278190335
1.2033253 0.29325652 -0.42636266 4278190335
1.2016597 0.29176989 -0.42627239 4278190335
1.2127024 0.29258245 -0.43056473 4278190335
1.2158128 0.29233527 -0.43263155 4278190335
1.2239853 0.29239732 -0.43582949 4278190335
1.2350283 0.29321 -0.44012189 4278190335
1.2422359 0.29301041 -0.44328803 4278190335
1.2345672 0.29098716 -0.44103569 4278190335
1.24561 0.29179987 -0.44532809 4278190335
1.2468148 0.29106379 -0.44633222 4278190335
1.2362757 0.28828996 -0.4429855 4278190335
1.2333828 0.28750631 -0.44289026 4278190335
1.2285844 0.2862336 -0.44173235 4278190335
1.2041098 0.28186342 -0.43399793 4278190335
1.1993114 0.28059068 -0.43284005 4278190335
1.2017431 0.27915162 -0.43384916 4278190335
1.1820682 0.27605513 -0.42727265 4278190335
1.1791753 0.27527133 -0.4271774 4278190335
1.182572 0.27409393 -0.42821825 4278190335
1.1768326 0.2725938 -0.42602944 4278190335
1.1739396 0.27181 -0.4259342 4278190335
1.171333 0.27009585 -0.424813 4278190335
1.155493 0.26801148 -0.41936275 4278190335
1.1598306 0.26706138 -0.42143449 4278190335
1.1629646 0.26684853 -0.42250216 4278190335
1.14616 0.26450244 -0.41702008 4278190335
1.1603354 0.26510116 -0.42238009 4278190335
1.1425662 0.26249352 -0.41686627 4278190335
1.1488332 0.26206666 -0.41900155 4278190335
1.1500614 0.26136476 -0.41900659 4278190335
1.1433573 0.25960293 -0.41678596 4278190335
1.1515299 0.25966507 -0.41998395 4278190335
1.1407284 0.25785562 -0.41666394 4278190335
1.1428978 0.25738111 -0.41769987 4278190335
1.1489021 0.2579188 -0.41986191 4278190335
1.1431627 0.25641862 -0.41767311 4278190335
1.140556 0.25470445 -0.41655186 4278190335
1.1436901 0.25449154 -0.41761956 4278190335
1.1350579 0.25220749 -0.41533542 4278190335
1.1381921 0.25199461 -0.41640308 4278190335
1.1274143 0.25021932 -0.41208392 4278190335
1.1384571 0.25103211 -0.41637638 4278190335
1.1387208 0.25006858 -0.41634962 4278190335
1.1320167 0.24830671 -0.41412893 4278190335
1.1529212 0.25070277 -0.42071056 4278190335
1.1382847 0.24788094 -0.4162643 4278190335
1.1474456 0.24823895 -0.41849491 4278190335
1.1448404 0.24652585 -0.41737378 4278190335
1.1388382 0.24599011 -0.41521168 4278190335
1.1451051 0.24556333 -0.41734701 4278190335
1.1482391 0.24535048 -0.41841468 4278190335
1.1453701 0.24460085 -0.41732028 4278190335
1.1535662 0.2446973 -0.4195191 4278190335
1.1478269 0.24319707 -0.41733027 4278190335
1.1538314 0.24373494 -0.41949239 4278190335
1.1540951 0.24277137 -0.4194656 4278190335
1.15412 0.24280667 -0.41846651 4278190335
1.1515135 0.24109247 -0.41734529 4278190335
1.1505499 0.24083187 -0.41731358 4278190335
1.1508373 0.23990256 -0.41628766 4278190335
1.1549373 0.23995236 -0.41738716 4278190335
1.1552012 0.23898889 -0.4173604 4278190335
1.1694002 0.23962219 -0.42172131 4278190335
1.1655902 0.23864512 -0.41959602 4278190335
1.1665562 0.23890784 -0.41962782 4278190335
1.1608168 0.23740752 -0.41743895 4278190335
1.1788511 0.23905323 -0.42292619 4278190335
1.1819849 0.23884034 -0.42399383 4278190335
1.178175 0.23786332 -0.42186853 4278190335
1.1822736 0.23791213 -0.42296797 4278190335
1.1993431 0.23929626 -0.4284234 4278190335
1.2025008 0.23911767 -0.42849198 4278190335
1.207803 0.23842938 -0.43059552 4278190335
1.2087926 0.23872629 -0.42962822 4278190335
1.2078528 0.23849994 -0.42859736 4278190335
1.2049836 0.23775031 -0.42750293 4278190335
1.2052711 0.23682107 -0.42647704 4278190335
1.2084053 0.2366083 -0.42754477 4278190335
1.2223419 0.23820634 -0.43193254 4278190335
1.2204611 0.23775259 -0.42987075 4278190335
1.2317901 0.23763539 -0.43313736 4278190335
1.2178794 0.23607369 -0.4277505 4278190335
1.2270403 0.23643199 -0.42998114 4278190335
1.2200974 0.23566879 -0.42678818 4278190335
1.2172284 0.23491916 -0.42569378 4278190335
1.2263891 0.23527747 -0.42792442 4278190335
1.2153488 0.23446646 -0.42363203 4278190335
1.2235686 0.2345974 -0.42483181 4278190335
1.2267275 0.23441991 -0.42490041 4278190335
1.2447853 0.23610014 -0.42938855 4278190335
1.233043 0.2340629 -0.42503756 4278190335
1.2270647 0.23356131 -0.42187637 4278190335
1.2371665 0.23414712 -0.42513797 4278190335
1.228318 0.23289473 -0.42088231 4278190335
1.2463521 0.23454084 -0.42636958 4278190335
1.2375038 0.23328848 -0.42211393 4278190335
1.2574672 0.23545788 -0.42766479 4278190335
1.2735955 0.2366149 -0.43208939 4278190335
1.3538995 0.2432576 -0.45723641 4278190335
1.4168726 0.24948148 -0.47695479 4278190335
1.4962355 0.2558969 -0.50107098 4278190335
1.6483846 0.27005044 -0.54919308 4278190335
1.7448406 0.27788514 -0.57776576 4278190335
1.7607303 0.28004134 -0.58121812 4278190335
1.7278457 0.27660719 -0.56931311 4278190335
1.7560276 0.278907 -0.57606381 4278190335
1.742117 0.27734536 -0.57067692 4278190335
1.7231681 0.27550849 -0.5631597 4278190335
1.7263492 0.27536449 -0.56222928 4278190335
1.7643454 0.27917951 -0.57326752 4278190335
1.7494937 0.27739045 -0.56684977 4278190335
1.7495424 0.27746025 -0.5648517 4278190335
1.758464 0.27881792 -0.56611013 4278190335
1.7597162 0.27815068 -0.56511611 4278190335
1.7597648 0.27822056 -0.56311798 4278190335
1.7607541 0.27851787 -0.56215072 4278190335
1.7608025 0.27858776 -0.56015253 4278190335
1.7529187 0.27759722 -0.55592871 4278190335
1.7558374 0.27841789 -0.55502504 4278190335
1.7539568 0.27796441 -0.55296338 4278190335
1.7600083 0.27857134 -0.55312735 4278190335
1.7549946 0.27833158 -0.54999799 4278190335
1.7610463 0.2789385 -0.55016202 4278190335
1.7560563 0.27873302 -0.5460335 4278190335
1.7529483 0.27898234 -0.54396683 4278190335
1.7589998 0.27958933 -0.5441308 4278190335
1.7720428 0.28102913 -0.54548967 4278190335
1.7631942 0.27977696 -0.54123402 4278190335
1.766113 0.28059763 -0.54033041 4278190335
1.7740939 0.28172788 -0.54055798 4278190335
1.7649828 0.28144023 -0.53632915 4278190335
1.7751555 0.28212935 -0.53659344 4278190335
1.7400794 0.27913582 -0.52465159 4278190335
1.7759309 0.28346112 -0.53365493 4278190335
1.7671061 0.28224313 -0.52840018 4278190335
1.7680954 0.28254038 -0.52743292 4278190335
1.7688462 0.28383654 -0.52549344 4278190335
1.7777916 0.28522855 -0.52575278 4278190335
1.7778401 0.28529847 -0.52375466 4278190335
1.7788532 0.28562999 -0.5217883 4278190335
1.7406206 0.28281578 -0.50977778 4278190335
1.7707553 0.28567386 -0.51559311 4278190335
1.7445525 0.28396806 -0.50690776 4278190335
1.7725191 0.28730154 -0.51168728 4278190335
1.7424814 0.28458315 -0.50187564 4278190335
1.7434945 0.2849147 -0.49990931 4278190335
1.7473779 0.28599706 -0.49903744 4278190335
1.7442936 0.28628066 -0.49597165 4278190335
1.7570738 0.2886852 -0.49735728 4278190335
1.7751787 0.2904349 -0.49984741 4278190335
1.7499405 0.28899065 -0.49119389 4278190335
1.7489005 0.28847066 -0.48810461 4278190335
1.7467574 0.2889815 -0.48606962 4278190335
1.7525704 0.29058546 -0.48526087 4278190335
1.7475804 0.29038009 -0.48113239 4278190335
1.7603612 0.29278168 -0.4825173 4278190335
1.7541207 0.29324532 -0.47938302 4278190335
1.7529657 0.29405174 -0.47638062 4278190335
1.7590411 0.29469121 -0.47554511 4278190335
1.748703 0.29510751 -0.47131157 4278190335
1.7386508 0.2945933 -0.46605206 4278190335
1.7485614 0.29624465 -0.46634263 4278190335
1.7093868 0.29320905 -0.45330268 4278190335
1.6482731 0.28741661 -0.4366475 4278190335
1.5551903 0.27838647 -0.4101184 4278190335
1.5308928 0.27717331 -0.40249667 4278190335
1.530679 0.27820703 -0.40052515 4278190335
1.5475572 0.28065586 -0.40300936 4278190335
1.5565269 0.28207985 -0.40226901 4278190335
1.5642457 0.28417268 -0.40252286 4278190335
1.5491078 0.28331551 -0.39713147 4278190335
1.5650449 0.285537 -0.39858481 4278190335
1.5588279 0.2860347 -0.39445138 4278190335
1.5607824 0.28659272 -0.39351562 4278190335
1.5665952 0.28819668 -0.39270693 4278190335
1.5594136 0.28843281 -0.38854173 4278190335
1.5601645 0.28972808 -0.38660198 4278190335
1.5919906 0.2941021 -0.39150694 4278190335
1.5917767 0.29513586 -0.38953546 4278190335
1.5925275 0.29643106 -0.38759565 4278190335
1.5923138 0.29746485 -0.38562417 4278190335
1.5930645 0.29876009 -0.3836844 4278190335
1.5890392 0.29881611 -0.37958765 4278190335
1.6088116 0.30204958 -0.3821671 4278190335
1.612433 0.30409524 -0.38132167 4278190335
1.6252375 0.3065311 -0.38170743 4278190335
1.6240826 0.30733749 -0.37870502 4278190335
1.6156738 0.30827671 -0.3745349 4278190335
1.6106601 0.30803704 -0.37140557 4278190335
1.6114111 0.30933234 -0.3694658 4278190335
1.6121855 0.31066173 -0.3665269 4278190335
1.6348519 0.31467986 -0.36920157 4278190335
1.6464294 0.31781888 -0.36958241 4278190335
1.6452745 0.31862527 -0.36658001 4278190335
1.6390339 0.31908873 -0.3634457 4278190335
1.6458352 0.32098848 -0.36166957 4278190335
1.645359 0.32298687 -0.35972491 4278190335
1.6470746 0.32454365 -0.35781685 4278190335
1.6557814 0.32693228 -0.35710335 4278190335
1.6606535 0.32830906 -0.35526374 4278190335
1.6722308 0.33144805 -0.35564461 4278190335
1.7146684 0.33869904 -0.36089879 4278190335
1.742397 0.3430261 -0.36470455 4278190335
1.7508651 0.34641349 -0.36301872 4278190335
1.7566782 0.34801769 -0.36221001 4278190335
1.7711496 0.35194132 -0.3626861 4278190335
1.7490438 0.35028633 -0.35510096 4278190335
1.769542 0.35478026 -0.35673982 4278190335
1.7703165 0.35610977 -0.35380092 4278190335
1.7777965 0.35920155 -0.35308251 4278190335
1.7614551 0.35908148 -0.34668702 4278190335
1.7660646 0.3614229 -0.3448742 4278190335
1.6933514 0.35245708 -0.32883701 4278190335
1.6671009 0.35068643 -0.32215086 4278190335
1.6806313 0.35438269 -0.32159609 4278190335
1.7548697 0.36597323 -0.33275458 4278190335
1.7544171 0.36800581 -0.32981074 4278190335
1.7669829 0.37144071 -0.32922417 4278190335
1.7636362 0.37268862 -0.32618514 4278190335
1.7752372 0.37586197 -0.32556686 4278190335
1.7719142 0.37714416 -0.32152867 4278190335
1.7752968 0.38018861 -0.31971097 4278190335
1.7849684 0.38283885 -0.31902915 4278190335
1.7755948 0.38351652 -0.31482729 4278190335
1.7722719 0.38479862 -0.31078911 4278190335
1.7756542 0.3878431 -0.30897135 4278190335
1.7901492 0.39180097 -0.30844831 4278190335
1.7759762 0.39120519 -0.30308861 4278190335
1.8032271 0.39752996 -0.30494967 4278190335
1.7769765 0.39575914 -0.29826352 4278190335
1.7755593 0.39753023 -0.29528794 4278190335
1.7731773 0.39903969 -0.29228058 4278190335
1.7758812 0.40089226 -0.28940517 4278190335
1.7734991 0.40240175 -0.28639784 4278190335
1.7768816 0.40544623 -0.28458011 4278190335
1.8000351 0.41172376 -0.28534189 4278190335
1.8126243 0.41519281 -0.28375626 4278190335
1.8003569 0.41508582 -0.27945915 4278190335
1.7999043 0.41711837 -0.27651531 4278190335
1.9636146 0.83520681 -0.25295454 4278190335
1.9627557 0.83799833 -0.25603268 4278190335
1.9861399 0.85042411 -0.2620213 4278190335
1.9843408 0.85298818 -0.26406831 4278190335
1.9844465 0.85604173 -0.26717845 4278190335
1.9929471 0.86238247 -0.27160242 4278190335
1.9779303 0.86034983 -0.27217561 4278190335
1.9893243 0.86747628 -0.27669558 4278190335
1.9836669 0.86899275 -0.27861464 4278190335
1.9772832 0.86924857 -0.28147396 4278190335
1.9699595 0.86927682 -0.28330225 4278190335
1.9691006 0.87206841 -0.28638038 4278190335
1.9944141 0.88501799 -0.29243305 4278190335
2.0000443 0.89060736 -0.29576194 4278190335
1.9704067 0.88152516 -0.29474363 4278190335
1.9582599 0.88024396 -0.29641187 4278190335
1.9415771 0.87672311 -0.29689428 4278190335
1.723815 0.71753246 -0.4282589 4278190335
1.7205791 0.71469355 -0.42408073 4278190335
1.7513739 0.72297627 -0.428101 4278190335
1.7761189 0.73065144 -0.43195626 4278190335
1.774788 0.72830224 -0.42884117 4278190335
1.7753865 0.72647721 -0.42578998 4278190335
1.7814853 0.72715443 -0.4239566 4278190335
1.7849536 0.72608113 -0.42200047 4278190335
1.767584 0.71845031 -0.4143185 4278190335
1.7633835 0.71534944 -0.41010836 4278190335
1.7488599 0.70843601 -0.40452057 4278190335
1.758793 0.71012712 -0.4038142 4278190335
1.7500569 0.70478594 -0.39841822 4278190335
1.7333649 0.69834721 -0.3917942 4278190335
1.7432981 0.70003825 -0.3910878 4278190335
1.7383962 0.6957109 -0.38681886 4278190335
1.739696 0.69511217 -0.38382646 4278190335
1.7335666 0.69148719 -0.37955236 4278190335
1.7379994 0.69067603 -0.37762824 4278190335
1.7318697 0.68705094 -0.37335408 4278190335
1.7360636 0.68723845 -0.37045765 4278190335
1.7424252 0.68695122 -0.36859739 4278190335
1.7437255 0.68635261 -0.36560503 4278190335
1.7423948 0.68400353 -0.36248991 4278190335
1.7372297 0.68064052 -0.35824776 4278190335
1.7358993 0.67829144 -0.35513264 4278190335
1.7532858 0.68304312 -0.35470885 4278190335
1.7236402 0.67104131 -0.34658447 4278190335
1.7278339 0.67122883 -0.34368795 4278190335
1.7313023 0.67015564 -0.34173185 4278190335
1.7306969 0.6690672 -0.33767641 4278190335
1.7200078 0.66316754 -0.33321559 4278190335
1.6805016 0.64957845 -0.3228001 4278190335
1.6525223 0.63906503 -0.3147665 4278190335
1.6406295 0.63390213 -0.30930144 4278190335
1.6383581 0.63132524 -0.30515525 4278190335
1.6473269 0.63275421 -0.30441687 4278190335
1.6820273 0.64215404 -0.30656677 4278190335
1.7083337 0.64826542 -0.307403 4278190335
1.7237914 0.65249318 -0.30691519 4278190335
1.7147684 0.64808214 -0.30254516 4278190335
1.7105678 0.64498109 -0.29833502 4278190335
1.7176312 0.6459204 -0.29653358 4278190335
1.8991263 0.69987881 -0.32172522 4278190335
1.8985211 0.69879055 -0.31766975 4278190335
1.8856636 0.69336557 -0.31217274 4278190335
1.9148635 0.7002632 -0.31310484 4278190335
1.9154856 0.6984725 -0.30905452 4278190335
1.916786 0.69787401 -0.30606216 4278190335
1.9097159 0.69402134 -0.30075693 4278190335
1.9112788 0.69245839 -0.29773772 4278190335
1.911901 0.69066763 -0.2936874 4278190335
1.9093668 0.68905526 -0.28956798 4278190335
1.9080601 0.68674046 -0.28545377 4278190335
1.9086584 0.68491548 -0.28240255 4278190335
1.9070885 0.68356502 -0.27831513 4278190335
1.9106045 0.68256044 -0.27436069 4278190335
1.9083333 0.67998368 -0.2702145 4278190335
1.9067633 0.67863321 -0.26612705 4278190335
1.9102556 0.67759448 -0.26317179 4278190335
1.9089485 0.6752795 -0.25905749 4278190335
1.8794653 0.51928812 -0.26585761 4278190335
1.8623458 0.51356918 -0.26625478 4278190335
1.8627782 0.51150465 -0.27019754 4278190335
1.86227 0.50921208 -0.27310929 4278190335
1.8538066 0.50581968 -0.27479309 4278190335
1.841749 0.5004136 -0.27632231 4278190335
1.8479682 0.49992302 -0.28045681 4278190335
1.8228936 0.4931041 -0.27962601 4278190335
1.8380324 0.4939757 -0.28502038 4278190335
1.6522038 0.428359 -0.29936332 4278190335
1.6772264 0.43085524 -0.3060495 4278190335
1.6665951 0.42793664 -0.3066971 4278190335
1.6730773 0.42648163 -0.31080478 4278190335
1.6882398 0.42738754 -0.31520003 4278190335
1.6906251 0.42588189 -0.31820765 4278190335
1.6958799 0.42512903 -0.32231018 4278190335
1.7030636 0.42490071 -0.32647663 4278190335
1.6987214 0.42159304 -0.32826144 4278190335
1.6813626 0.41687232 -0.32768622 4278190335
1.68857 0.41667828 -0.33085355 4278190335
1.7205596 0.41997817 -0.33973491 4278190335
1.714049 0.41714439 -0.34048349 4278190335
1.719304 0.41639155 -0.34458604 4278190335
1.7267507 0.41519895 -0.34872571 4278190335
1.7142142 0.41178983 -0.34831026 4278190335
1.7079432 0.40795752 -0.35003117 4278190335
1.6925132 0.40376139 -0.34951988 4278190335
1.6910647 0.40124074 -0.35140055 4278190335
1.7110016 0.4033899 -0.35795382 4278190335
1.719413 0.40245971 -0.36212546 4278190335
1.6950874 0.39693543 -0.35935515 4278190335
1.6777525 0.39224884 -0.35778078 4278190335
1.6899979 0.39233372 -0.36307931 4278190335
1.670734 0.38712248 -0.36144114 4278190335
1.6622946 0.38376397 -0.36212584 4278190335
1.6350996 0.37748688 -0.35826054 4278190335
1.6177645 0.37280023 -0.35668629 4278190335
1.6271404 0.3721323 -0.36088985 4278190335
1.6343241 0.37190408 -0.36505628 4278190335
1.6121907 0.36593997 -0.36232311 4278190335
1.6124077 0.36490825 -0.36429444 4278190335
1.6119233 0.3626498 -0.36620709 4278190335
1.6092709 0.36086535 -0.36708343 4278190335
1.5979382 0.35671985 -0.36767229 4278190335
1.5981551 0.3556881 -0.36964369 4278190335
1.5995997 0.35395432 -0.37162018 4278190335
1.6000799 0.35195822 -0.37356475 4278190335
1.5916644 0.34863392 -0.37325031 4278190335
1.5918814 0.34760219 -0.37522164 4278190335
1.591397 0.34534374 -0.37713426 4278190335
1.5918772 0.34334764 -0.37907887 4278190335
1.5742793 0.33962527 -0.37753135 4278190335
1.5957073 0.34010825 -0.38406301 4278190335
1.574275 0.33537069 -0.38138855 4278190335
1.5795776 0.33468631 -0.38349283 4278190335
1.5899178 0.33428073 -0.38772836 4278190335
1.5773813 0.3308714 -0.38731292 4278190335
1.5699303 0.32780942 -0.38703045 4278190335
1.5564533 0.32417196 -0.38558394 4278190335
1.5645936 0.32421294 -0.38980979 4278190335
1.5771258 0.32336783 -0.39408278 4278190335
1.552561 0.3188417 -0.39033979 4278190335
1.5590672 0.31742108 -0.39344862 4278190335
1.5742296 0.31832743 -0.39784423 4278190335
1.5578593 0.31390277 -0.39630172 4278190335
1.5491804 0.31154269 -0.396014 4278190335
1.540789 0.30825257 -0.39470044 4278190335
1.5400414 0.30695847 -0.39663994 4278190335
1.5325905 0.3038964 -0.39635742 4278190335
1.5397979 0.30370253 -0.39952496 4278190335
1.5323468 0.3006404 -0.39924246 4278190335
1.5316231 0.29938057 -0.40018278 4278190335
1.5321034 0.29738447 -0.4021275 4278190335
1.5424436 0.29697916 -0.40636331 4278190335
1.5090307 0.29119283 -0.3983629 4278190335
1.5082833 0.28989875 -0.40030241 4278190335
1.5345094 0.29165962 -0.40799347 4278190335
1.5251534 0.28810704 -0.40664789 4278190335
1.5335647 0.28717697 -0.41081983 4278190335
1.5467983 0.2875587 -0.41515157 4278190335
1.648088 0.29680809 -0.44290316 4278190335
1.7303587 0.30410275 -0.46613124 4278190335
1.7359244 0.3024542 -0.468209 4278190335
1.7662241 0.30423197 -0.47799954 4278190335
1.7607019 0.30169466 -0.47778091 4278190335
1.7713053 0.3003251 -0.48198998 4278190335
1.7797403 0.29942945 -0.48516285 4278190335
1.7802206 0.2974335 -0.48710755 4278190335
1.7826296 0.29596221 -0.48911616 4278190335
1.779977 0.29417774 -0.48999262 4278190335
1.776384 0.29216522 -0.489838 4278190335
1.7888923 0.29128614 -0.49511015 4278190335
1.7973275 0.29039055 -0.49828291 4278190335
1.7889359 0.28710032 -0.49696934 4278190335
1.7882122 0.28584057 -0.49790972 4278190335
1.7728301 0.28171247 -0.49540001 4278190335
1.7882318 0.28162056 -0.50076807 4278190335
1.7877715 0.27939647 -0.50168175 4278190335
1.7880123 0.27839911 -0.50265402 4278190335
1.7796204 0.27510884 -0.50134045 4278190335
1.7618071 0.27241892 -0.49782121 4278190335
1.7873083 0.27291936 -0.50645274 4278190335
1.7849429 0.27020469 -0.50630331 4278190335
1.7781932 0.26836941 -0.50607955 4278190335
1.7486382 0.26363218 -0.49820694 4278190335
1.7611706 0.26278752 -0.50248003 4278190335
1.7493829 0.26067302 -0.50012493 4278190335
1.7407281 0.25834718 -0.49883801 4278190335
1.7652887 0.25861952 -0.50643849 4278190335
1.7366747 0.2541104 -0.49959704 4278190335
1.7229582 0.25147116 -0.49717802 4278190335
1.7282606 0.25078714 -0.49928257 4278190335
1.7338262 0.24913858 -0.50136036 4278190335
1.715072 0.24622031 -0.49680999 4278190335
1.609688 0.23692055 -0.46795782 4278190335
1.4448638 0.22326191 -0.4225271 4278190335
1.4058869 0.21912447 -0.41244876 4278190335
1.4140828 0.21922736 -0.41464919 4278190335
1.4196484 0.21757874 -0.41672701 4278190335
1.4300123 0.21720777 -0.41996372 4278190335
1.4767007 0.21918961 -0.4341552 4278190335
1.5619057 0.22308481 -0.45933867 4278190335
1.6237791 0.2260067 -0.4769268 4278190335
1.6846876 0.22866626 -0.4944829 4278190335
1.7092246 0.22890462 -0.50308257 4278190335
1.729975 0.22819607 -0.50855702 4278190335
1.708088 0.22548912 -0.50293833 4278190335
1.7054594 0.22373882 -0.50281566 4278190335
1.6855013 0.22155656 -0.49726093 4278190335
1.6787754 0.21975528 -0.49603799 4278190335
1.72163 0.2207223 -0.50910258 4278190335
1.7221577 0.21879472 -0.509049 4278190335
1.7214342 0.21753499 -0.50998938 4278190335
1.7065375 0.21566592 -0.50556684 4278190335
1.7231672 0.21487236 -0.51094019 4278190335
1.7236949 0.21294482 -0.51088667 4278190335
1.7148008 0.2116174 -0.50862741 4278190335
1.7232361 0.21072194 -0.51180023 4278190335
1.7247046 0.20902258 -0.51277781 4278190335
1.7300307 0.20837274 -0.51388329 4278190335
1.738466 0.20747729 -0.51705605 4278190335
1.7329677 0.204974 -0.51583838 4278190335
1.7108414 0.20326544 -0.5092473 4278190335
1.7041156 0.20146413 -0.50802445 4278190335
1.7084774 0.20055187 -0.50909787 4278190335
1.7008108 0.19852246 -0.50684381 4278190335
1.6859145 0.1966534 -0.50242132 4278190335
1.6628237 0.19468234 -0.49579829 4278190335
1.6163776 0.19170339 -0.48257902 4278190335
1.5478038 0.18701458 -0.4627687 4278190335
1.4748695 0.18323909 -0.44188493 4278190335
1.4609376 0.18163222 -0.43749428 4278190335
1.4501147 0.17977981 -0.43517113 4278190335
1.4564053 0.17939228 -0.43630853 4278190335
1.4566699 0.17842895 -0.43628177 4278190335
1.4367119 0.1762463 -0.43072695 4278190335
1.4003891 0.17389384 -0.41977203 4278190335
1.3549073 0.17117693 -0.40658468 4278190335
1.407885 0.17277114 -0.42191377 4278190335
1.3551735 0.17021461 -0.40655786 4278190335
1.40745 0.17058212 -0.42182818 4278190335
1.4077146 0.16961877 -0.42180139 4278190335
1.355003 0.16706212 -0.40644553 4278190335
1.4080045 0.16869068 -0.42077547 4278190335
1.3605939 0.16544878 -0.40752408 4278190335
1.3697541 0.16581424 -0.40975654 4278190335
1.3700187 0.16485089 -0.40972975 4278190335
1.3702836 0.16388758 -0.40970296 4278190335
1.3879011 0.1633907 -0.41410914 4278190335
1.3922631 0.16247839 -0.41518259 4278190335
1.3862621 0.16193771 -0.41301918 4278190335
1.3691974 0.1605421 -0.40756029 4278190335
1.3694623 0.15957876 -0.40753353 4278190335
1.3757529 0.15919125 -0.40867093 4278190335
1.3870815 0.15908299 -0.41193962 4278190335
1.3810805 0.15854238 -0.40977627 4278190335
1.397734 0.15778321 -0.41415048 4278190335
1.3939013 0.15676877 -0.41302344 4278190335
1.3919979 0.15627928 -0.41196036 4278190335
1.4011581 0.15664479 -0.41419277 4278190335
1.4023871 0.15594389 -0.41419795 4278190335
1.4017112 0.15475236 -0.41314003 4278190335
1.408002 0.15436488 -0.41427746 4278190335
1.3969396 0.15351079 -0.41098186 4278190335
1.4104602 0.15296306 -0.41428781 4278190335
1.4259098 0.15294009 -0.41765767 4278190335
1.4230416 0.15218812 -0.41656259 4278190335
1.4201734 0.15143611 -0.4154675 4278190335
1.4201987 0.15147136 -0.41446838 4278190335
1.4091363 0.15061726 -0.41117278 4278190335
1.4204886 0.15054333 -0.41344237 4278190335
1.4299122 0.14994453 -0.4156481 4278190335
1.4299374 0.14997979 -0.41464892 4278190335
1.4333584 0.14883934 -0.41469124 4278190335
1.4232619 0.1482486 -0.41142762 4278190335
1.4396757 0.14848813 -0.41482943 4278190335
1.4399644 0.14755909 -0.41380355 4278190335
1.4431223 0.14738299 -0.41387263 4278190335
1.4494144 0.14699665 -0.41501004 4278190335
1.4487385 0.14580515 -0.41395208 4278190335
1.4518964 0.14562906 -0.41402122 4278190335
1.4591516 0.14550415 -0.41519064 4278190335
1.4601413 0.14580181 -0.4142234 4278190335
1.4613703 0.14510088 -0.41422859 4278190335
1.4736869 0.14528942 -0.41653019 4278190335
1.4758807 0.14485103 -0.41656736 4278190335
1.4841001 0.14498846 -0.41776875 4278190335
1.4945118 0.14468643 -0.41900727 4278190335
1.501767 0.14456151 -0.42017668 4278190335
1.5049249 0.14438553 -0.4202458 4278190335
1.525436 0.14467634 -0.42474791 4278190335
1.5500442 0.14501832 -0.43035033 4278190335
1.5654939 0.14499575 -0.43372026 4278190335
1.597332 0.14517759 -0.44149119 4278190335
1.640521 0.14528467 -0.45153186 4278190335
1.6701908 0.14594029 -0.45826647 4278190335
1.6721212 0.14646634 -0.45833039 4278190335
1.6844616 0.14668925 -0.45963293 4278190335
1.6898116 0.14607382 -0.45973924 4278190335
1.6825831 0.14623515 -0.45757064 4278190335
1.7002249 0.14577319 -0.46097776 4278190335
1.6826574 0.14634007 -0.45457318 4278190335
1.7113628 0.14673348 -0.46127591 4278190335
1.7003243 0.1459135 -0.45698118 4278190335
1.7022783 0.14647365 -0.45604599 4278190335
1.7032679 0.14677149 -0.45507875 4278190335
1.7032931 0.14680684 -0.4540796 4278190335
1.7033184 0.14684223 -0.45308048 4278190335
1.7043318 0.14717425 -0.45111412 4278190335
1.704357 0.14720966 -0.450115 4278190335
1.7116361 0.14711918 -0.45028523 4278190335
1.7044076 0.14728042 -0.44811666 4278190335
1.7054209 0.14761236 -0.44615036 4278190335
1.7054461 0.14764778 -0.44515118 4278190335
1.7124618 0.14852159 -0.4453482 4278190335
1.712487 0.14855699 -0.44434905 4278190335
1.7134767 0.14885478 -0.44338191 4278190335
1.7163951 0.14967749 -0.44247863 4278190335
1.714252 0.15018648 -0.44044316 4278190335
1.7174338 0.15004484 -0.43951321 4278190335
1.7143263 0.15029152 -0.43744573 4278190335
1.7266667 0.15051462 -0.43874824 4278190335
1.7151016 0.1516232 -0.43450698 4278190335
1.7274421 0.15184635 -0.43580949 4278190335
1.7088866 0.15211651 -0.43037206 4278190335
1.7190349 0.1527791 -0.43163738 4278190335
1.7190839 0.15284865 -0.42963907 4278190335
1.7096872 0.15348358 -0.42643416 4278190335
1.7085085 0.15425511 -0.42443064 4278190335
1.7259107 0.15479188 -0.42686543 4278190335
1.7206348 0.15551217 -0.42376164 4278190335
1.7216244 0.15580998 -0.42279443 4278190335
1.72141 0.1568439 -0.42082286 4278190335
1.7192669 0.15735295 -0.41878742 4278190335
1.7221854 0.15817565 -0.41788417 4278190335
1.7108836 0.15831988 -0.41361615 4278190335
1.7229607 0.15950738 -0.41494542 4278190335
1.7230098 0.15957697 -0.41294718 4278190335
1.7297622 0.16141525 -0.41317093 4278190335
1.7481285 0.16221453 -0.41563764 4278190335
1.7327057 0.16227332 -0.4112685 4278190335
1.7242973 0.16320479 -0.40709639 4278190335
1.7332416 0.16460359 -0.40735736 4278190335
1.7342314 0.16490144 -0.40639019 4278190335
1.7504295 0.1661745 -0.40782061 4278190335
1.731874 0.16644447 -0.40238315 4278190335
1.7263348 0.168129 -0.39930612 4278190335
1.7263837 0.1681986 -0.39730781 4278190335
1.7353282 0.1695974 -0.39756879 4278190335
1.7268957 0.17049465 -0.3943958 4278190335
1.7339352 0.17140284 -0.39359373 4278190335
1.716344 0.17193513 -0.38818821 4278190335
1.7284212 0.17312282 -0.38951749 4278190335
1.7525504 0.17546272 -0.39317521 4278190335
1.7359238 0.17625746 -0.38780174 4278190335
1.7296834 0.17671521 -0.38466594 4278190335
1.7294693 0.17774925 -0.38269439 4278190335
1.7352809 0.17935932 -0.38188702 4278190335
1.7186542 0.18015395 -0.37651351 4278190335
1.7307314 0.18134166 -0.37784275 4278190335
1.7375072 0.18321411 -0.37706745 4278190335
1.7312671 0.18367197 -0.37393168 4278190335
1.7370787 0.18528207 -0.3731243 4278190335
1.7317791 0.18596801 -0.37101963 4278190335
1.7322661 0.18822876 -0.3691068 4278190335
1.7320517 0.1892627 -0.36713523 4278190335
1.7328018 0.190559 -0.36519566 4278190335
1.7325875 0.19159295 -0.36322409 4278190335
1.7393397 0.1934313 -0.36344784 4278190335
1.734064 0.19415149 -0.36034405 4278190335
1.7335862 0.19614968 -0.35839924 4278190335
1.7343364 0.19744615 -0.35645965 4278190335
1.734122 0.19847998 -0.3544881 4278190335
1.7348722 0.19977646 -0.35254851 4278190335
1.735359 0.2020371 -0.35063562 4278190335
1.7237698 0.20311114 -0.34739345 4278190335
1.7438257 0.20543431 -0.34895185 4278190335
1.7353933 0.20633143 -0.34577879 4278190335
1.7361434 0.20762785 -0.34383926 4278190335
1.7245781 0.20873603 -0.33959797 4278190335
1.7364159 0.21092242 -0.33995482 4278190335
1.7267556 0.21252134 -0.33677658 4278190335
1.7275057 0.21381773 -0.33483696 4278190335
1.7272915 0.21485168 -0.33286545 4278190335
1.7258493 0.21658742 -0.33088863 4278190335
1.7376869 0.21877377 -0.33124554 4278190335
1.735041 0.22124568 -0.32826436 4278190335
1.7285373 0.22266765 -0.32515532 4278190335
1.728323 0.22370157 -0.32318375 4278190335
1.7360636 0.22583666 -0.32244039 4278190335
1.7295512 0.2272471 -0.31938449 4278190335
1.7290498 0.22921114 -0.31843904 4278190335
1.7295363 0.23147176 -0.31652641 4278190335
1.7293222 0.23250574 -0.31455505 4278190335
1.7298088 0.23476627 -0.31264243 4278190335
1.7302957 0.23702702 -0.31072983 4278190335
1.729818 0.23902524 -0.30878523 4278190335
1.7305682 0.24032161 -0.3068459 4278190335
1.7481924 0.24408282 -0.30739543 4278190335
1.7397598 0.2449798 -0.30422238 4278190335
1.7494051 0.24760553 -0.3045426 4278190335
1.745795 0.24981499 -0.30152962 4278190335
1.7465451 0.25111136 -0.29959029 4278190335
1.7489607 0.25389698 -0.29774165 4278190335
1.7405283 0.25479403 -0.2945686 4278190335
1.7501975 0.25745401 -0.29388976 4278190335
1.7434068 0.25980613 -0.29180658 4278190335
1.7439173 0.26210099 -0.28889483 4278190335
1.7497292 0.26371118 -0.28808793 4278190335
1.74419 0.26539558 -0.28501087 4278190335
1.7567284 0.26880878 -0.28542718 4278190335
1.9431241 0.74438286 -0.25702953 4278190335
1.942526 0.74620956 -0.26008028 4278190335
1.9296563 0.74365437 -0.26268733 4278190335
1.9316877 0.74723399 -0.26586097 4278190335
1.9368513 0.75060362 -0.27010328 4278190335
1.9323963 0.75137866 -0.27302575 4278190335
1.9733166 0.76749367 -0.2825636 4278190335
1.955649 0.76365834 -0.28401116 4278190335
1.9293268 0.75749129 -0.28417087 4278190335
1.9534651 0.7670145 -0.29107964 4278190335
1.9612582 0.77213699 -0.29544491 4278190335
1.9416621 0.76777589 -0.2968283 4278190335
1.9552166 0.77444142 -0.30238512 4278190335
1.9478929 0.77446216 -0.30421221 4278190335
1.9472711 0.77625448 -0.30826208 4278190335
1.9598616 0.78265727 -0.31378683 4278190335
1.9537421 0.78194237 -0.31661838 4278190335
1.958642 0.78627622 -0.32088739 4278190335
1.9570799 0.78784007 -0.32390612 4278190335
1.9471029 0.78607345 -0.32660931 4278190335
1.9400423 0.78512973 -0.32840961 4278190335
1.9394207 0.78692228 -0.33245945 4278190335
1.8531814 0.75845295 -0.32141376 4278190335
1.757323 0.7273888 -0.30904818 4278190335
1.7540962 0.72746247 -0.31197599 4278190335
1.7647582 0.73333949 -0.31743661 4278190335
1.7792773 0.74026799 -0.32302552 4278190335
1.7909037 0.74640793 -0.32851818 4278190335
1.7960675 0.74977756 -0.33276051 4278190335
1.7861143 0.74804515 -0.33446464 4278190335
1.7893738 0.75092334 -0.33764365 4278190335
1.7700652 0.74563205 -0.3380011 4278190335
1.7687669 0.74623144 -0.34099302 4278190335
1.7710618 0.74884677 -0.34413999 4278190335
1.7527179 0.74381834 -0.34452954 4278190335
1.7521198 0.74564481 -0.34758028 4278190335
1.806388 0.78109449 -0.3901262 4278190335
1.8405104 0.79530132 -0.40143779 4278190335
1.8605276 0.80473727 -0.40824506 4278190335
1.8750226 0.81163162 -0.41483307 4278190335
1.8634287 0.80844361 -0.41544715 4278190335
1.8434438 0.80195934 -0.41474667 4278190335
1.8418815 0.80352306 -0.41776532 4278190335
1.5263488 0.55432266 -0.42464653 4278190335
1.5865483 0.57144547 -0.43868366 4278190335
1.6089438 0.57646263 -0.44139281 4278190335
1.6358728 0.58372474 -0.44528827 4278190335
1.6381073 0.58333945 -0.44337037 4278190335
1.6487156 0.58623314 -0.44372359 4278190335
1.6548142 0.58691615 -0.44189119 4278190335
1.6779101 0.59316027 -0.44466004 4278190335
1.6497264 0.5836513 -0.43465132 4278190335
1.6164814 0.57382584 -0.42350969 4278190335
1.5767747 0.56122953 -0.4111174 4278190335
1.5588863 0.55550909 -0.40348682 4278190335
1.558259 0.55438548 -0.40043062 4278190335
1.5631295 0.55576974 -0.39859292 4278190335
1.5720969 0.55720752 -0.397856 4278190335
1.5894312 0.56190801 -0.39943308 4278190335
1.6221218 0.57071352 -0.4045212 4278190335
1.640708 0.57474703 -0.40510449 4278190335
1.7021828 0.59123689 -0.41715053 4278190335
1.7089819 0.59314716 -0.41537705 4278190335
1.7189136 0.59484798 -0.41467226 4278190335
1.7336667 0.59786391 -0.41412807 4278190335
1.7308469 0.59717846 -0.41103444 4278190335
1.7379098 0.59812462 -0.4092342 4278190335
1.7248191 0.59368497 -0.40276322 4278190335
1.7251559 0.5928244 -0.39973921 4278190335
1.7261931 0.59319091 -0.39677393 4278190335
1.7371131 0.59518903 -0.39510214 4278190335
1.744176 0.5961352 -0.39330193 4278190335
1.7356187 0.59394038 -0.38801739 4278190335
1.748443 0.59643024 -0.38740894 4278190335
1.7850146 0.60632229 -0.39162648 4278190335
1.8276114 0.61679375 -0.39700893 4278190335
1.8171257 0.61407298 -0.39166021 4278190335
1.8059392 0.61012495 -0.38625261 4278190335
1.7947769 0.60621125 -0.37984586 4278190335
1.8073375 0.60966533 -0.37926418 4278190335
1.8172932 0.61140049 -0.37756035 4278190335
1.8070711 0.60771549 -0.37218484 4278190335
1.796873 0.60406476 -0.36581016 4278190335
1.7892799 0.60213286 -0.36055773 4278190335
1.782891 0.59946567 -0.3563098 4278190335
1.7676077 0.59546405 -0.34980133 4278190335
1.7583497 0.59204197 -0.34445792 4278190335
1.7394733 0.58602417 -0.33779433 4278190335
1.7472606 0.58823174 -0.33505383 4278190335
1.7447287 0.58661652 -0.33093435 4278190335
1.7361474 0.58438736 -0.32664892 4278190335
1.7259253 0.5807023 -0.32127339 4278190335
1.7154396 0.57798135 -0.31592461 4278190335
1.6955988 0.57170057 -0.30922887 4278190335
1.6921027 0.56982219 -0.30507722 4278190335
1.6902711 0.56943405 -0.30101654 4278190335
1.6894038 0.56930894 -0.29698798 4278190335
1.6868482 0.56765932 -0.29386753 4278190335
1.7748636 0.59063107 -0.29676288 4278190335
1.8710996 0.61665839 -0.30796689 4278190335
1.8394717 0.60825413 -0.29891428 4278190335
1.8773191 0.61751378 -0.301139 4278190335
1.8889633 0.62077361 -0.29852703 4278190335
1.8893244 0.61994731 -0.29450381 4278190335
1.8903618 0.620314 -0.29153863 4278190335
1.8789355 0.61736429 -0.2851586 4278190335
1.8917837 0.61988866 -0.2835511 4278190335
1.8918808 0.62002653 -0.27955467 4278190335
1.893206 0.61946332 -0.27556357 4278190335
1.8817561 0.61647934 -0.2701827 4278190335
1.8934001 0.61973912 -0.2675707 4278190335
1.8294489 0.3969124 -0.27456075 4278190335
1.817901 0.38953364 -0.27703258 4278190335
1.8116328 0.38569549 -0.27875188 4278190335
1.8092455 0.3829442 -0.27960107 4278190335
1.8058699 0.37989554 -0.28141719 4278190335
1.8094839 0.37769046 -0.28443146 4278190335
1.8251964 0.37671483 -0.28777933 4278190335
1.8249775 0.37349144 -0.28966543 4278190335
1.806659 0.36849239 -0.2890529 4278190335
1.8162979 0.36686775 -0.2932331 4278190335
1.8167794 0.36487168 -0.29517817 4278190335
1.7895666 0.3585369 -0.29230377 4278190335
1.8163656 0.35845909 -0.29795131 4278190335
1.816847 0.35646302 -0.29989642 4278190335
1.7867178 0.34930456 -0.29792434 4278190335
1.7903557 0.34713376 -0.29993948 4278190335
1.7898726 0.34487444 -0.30185232 4278190335
1.7995359 0.34328413 -0.30503342 4278190335
1.7901353 0.33965498 -0.30568352 4278190335
1.7997985 0.33806467 -0.30886462 4278190335
1.7996038 0.33487558 -0.3097516 4278190335
1.7880104 0.33168423 -0.31036392 4278190335
1.7817663 0.32788032 -0.31108406 4278190335
1.7764864 0.32433954 -0.31183648 4278190335
1.7851855 0.3224861 -0.31498531 4278190335
1.7875952 0.32101625 -0.31699494 4278190335
1.785472 0.31730089 -0.31781739 4278190335
1.7970637 0.31623685 -0.32106304 4278190335
1.7797092 0.31150085 -0.32048261 4278190335
1.7792505 0.3092759 -0.32139635 4278190335
1.7698495 0.30564666 -0.3220464 4278190335
1.7674624 0.30289531 -0.32289562 4278190335
1.7790539 0.30183133 -0.32614127 4278190335
1.7706414 0.29849952 -0.32582444 4278190335
1.7793406 0.29664615 -0.32897332 4278190335
1.7670712 0.29226172 -0.32852751 4278190335
1.7796271 0.29146084 -0.33180535 4278190335
1.7702265 0.28783169 -0.33245546 4278190335
1.7789494 0.2860125 -0.33460522 4278190335
1.7946378 0.28500268 -0.33895227 4278190335
1.7951192 0.28300658 -0.34089738 4278190335
1.782874 0.27865642 -0.33945242 4278190335
1.7833552 0.27666035 -0.34139749 4278190335
1.786029 0.27422637 -0.34338042 4278190335
1.7915955 0.27258193 -0.34546009 4278190335
1.7954975 0.269447 -0.34744853 4278190335
1.796003 0.26748517 -0.34839448 4278190335
1.7825054 0.26380172 -0.3479431 4278190335
1.7861435 0.26163098 -0.34995827 4278190335
1.7856847 0.25940594 -0.35087195 4278190335
1.7823333 0.25639147 -0.35168886 4278190335
1.7768133 0.25384909 -0.35146886 4278190335
1.7826438 0.25124049 -0.35352179 4278190335
1.7647855 0.24846695 -0.35199559 4278190335
1.7826662 0.24701941 -0.35638058 4278190335
1.7711213 0.24389653 -0.35499454 4278190335
1.7706624 0.24167153 -0.35590824 4278190335
1.7704678 0.23848237 -0.35679519 4278190335
1.77507 0.23657477 -0.35884267 4278190335
1.7746112 0.23434979 -0.35975635 4278190335
1.7558126 0.23134728 -0.35719875 4278190335
1.7746577 0.23016295 -0.36161599 4278190335
1.7741991 0.22793804 -0.36252972 4278190335
1.7556642 0.22397123 -0.35994536 4278190335
1.7745094 0.22278693 -0.3643626 4278190335
1.7832086 0.22093359 -0.36751157 4278190335
1.7552521 0.21755944 -0.36271867 4278190335
1.7651795 0.21500506 -0.3658731 4278190335
1.765685 0.21304321 -0.36681908 4278190335
1.765226 0.21081825 -0.36773276 4278190335
1.7657317 0.20885645 -0.36867875 4278190335
1.7744546 0.20703728 -0.37082857 4278190335
1.764838 0.2044407 -0.36950698 4278190335
1.7624508 0.20168936 -0.3703562 4278190335
1.7525702 0.20005691 -0.36906132 4278190335
1.7432175 0.19649604 -0.36771306 4278190335
1.743723 0.19453427 -0.36865899 4278190335
1.761604 0.19308683 -0.37304407 4278190335
1.7497958 0.19095483 -0.37167305 4278190335
1.7616516 0.18892711 -0.37489197 4278190335
1.762181 0.18699965 -0.37483871 4278190335
1.7503721 0.18484072 -0.37347934 4278190335
1.75307 0.18244125 -0.37446305 4278190335
1.7444177 0.18010773 -0.37317368 4278190335
1.7427306 0.17858374 -0.37408179 4278190335
1.7444885 0.17595534 -0.37403408 4278190335
1.7500551 0.17431112 -0.37611371 4278190335
1.7249913 0.17172603 -0.37141764 4278190335
1.7438365 0.17054214 -0.37583479 4278190335
1.7433778 0.16831729 -0.37674841 4278190335
1.7315928 0.16619259 -0.37438989 4278190335
1.7320983 0.16423085 -0.37533578 4278190335
1.7439783 0.16223745 -0.37755555 4278190335
1.7321694 0.16007853 -0.37619615 4278190335
1.7317345 0.15788783 -0.37611061 4278190335
1.7250105 0.1560806 -0.37488586 4278190335
1.734674 0.15449078 -0.37806696 4278190335
1.7342392 0.15230006 -0.37798142 4278190335
1.7429625 0.15048133 -0.38013116 4278190335
1.7340462 0.14911188 -0.37886849 4278190335
1.7427694 0.14729312 -0.38101819 4278190335
1.7341411 0.14499381 -0.37872976 4278190335
1.7590115 0.14439073 -0.38431299 4278190335
1.740237 0.14142209 -0.38075608 4278190335
1.7405026 0.14045882 -0.38072962 4278190335
1.741008 0.13849704 -0.38167548 4278190335
1.7405735 0.13630643 -0.38159001 4278190335
1.740839 0.1353431 -0.38156348 4278190335
1.7404044 0.1331525 -0.38147792 4278190335
1.7582853 0.13170554 -0.38586289 4278190335
1.7411753 0.13022745 -0.38239726 4278190335
1.7407408 0.12803681 -0.38231176 4278190335
1.705027 0.12674481 -0.37540147 4278190335
1.7405717 0.12488288 -0.38219976 4278190335
1.7410773 0.12292116 -0.3831456 4278190335
1.7413429 0.12195786 -0.38311908 4278190335
1.7232686 0.12021653 -0.37962118 4278190335
1.7052184 0.1185094 -0.3751241 4278190335
1.740739 0.11661325 -0.38292158 4278190335
1.7236291 0.1151351 -0.37945589 4278190335
1.7229304 0.11390856 -0.37939709 4278190335
1.7109056 0.1127822 -0.37606612 4278190335
1.7237254 0.11101781 -0.37931731 4278190335
1.7044473 0.11001165 -0.37481466 4278190335
1.7235566 0.10786393 -0.37920526 4278190335
1.7291471 0.10625394 -0.38028577 4278190335
1.7231474 0.10570835 -0.37812084 4278190335
1.7019405 0.10417569 -0.37355363 4278190335
1.6961812 0.10263171 -0.37236106 4278190335
1.7017716 0.10102175 -0.37344158 4278190335
1.7020372 0.10005847 -0.37341508 4278190335
1.7023027 0.099095143 -0.37338856 4278190335
1.701604 0.097868629 -0.37332973 4278190335
1.7021577 0.095975474 -0.37227735 4278190335
1.7002308 0.095449865 -0.37221301 4278190335
1.7017248 0.093785688 -0.37219203 4278190335
1.6969292 0.092504747 -0.3710317 4278190335
1.6971947 0.09154138 -0.37100512 4278190335
1.6788807 0.090798385 -0.36653474 4278190335
1.6791462 0.089835048 -0.36650819 4278190335
1.6929545 0.088368222 -0.36879265 4278190335
1.678737 0.087679498 -0.36542377 4278190335
1.7060641 0.085674845 -0.37101826 4278190335
1.6792923 0.085787132 -0.36437157 4278190335
1.6785936 0.084560648 -0.36431277 4278190335
1.7008597 0.082238384 -0.36877346 4278190335
1.6794128 0.08170411 -0.3632338 4278190335
1.6796783 0.080740742 -0.36320728 4278190335
1.6736547 0.080160797 -0.36204138 4278190335
1.6790054 0.079549372 -0.36214957 4278190335
1.6792709 0.078586012 -0.36212304 4278190335
1.6858499 0.077273652 -0.36223671 4278190335
1.6851513 0.076047145 -0.36217788 4278190335
1.676959 0.075939149 -0.35997507 4278190335
1.6857064 0.074154742 -0.36112571 4278190335
1.6859721 0.073191501 -0.36109915 4278190335
1.6859976 0.073226549 -0.36010024 4278190335
1.6862631 0.072263278 -0.36007369 4278190335
1.6959746 0.070742071 -0.36125666 4278190335
1.6962643 0.069813043 -0.36023101 4278190335
1.6955911 0.068621613 -0.35917324 4278190335
1.6958809 0.067692637 -0.35814762 4278190335
1.6961464 0.06672927 -0.35812107 4278190335
1.6961719 0.066764407 -0.35712218 4278190335
1.6964376 0.065801114 -0.3570956 4278190335
1.7049208 0.064980872 -0.358273 4278190335
